ply
format ascii 1.0
element vertex 683
property double x
property double y
property double z
property uchar red
property uchar green
property uchar blue
end_header
0.3363108124610327 -0.1318753269706043 1.1907657434958363 134 124 123
0.0464528096535749 -0.1058916616537623 1.2061837824924750 116 116 114
0.3327690777050025 -0.0812804442368944 1.2107989066880758 118 112 112
-0.3529546220922885 -0.0926360007379773 1.2278016539356578 142 145 138
-0.1624253292881938 -0.0783070443803649 1.2213229835131241 182 184 181
0.3713513599235910 -0.0797147538962413 1.2114599409719669 114 105 98
-0.1783963557524280 -0.0695046601166358 1.2218169515494748 149 148 146
-0.0498175887271827 -0.0744833236823333 1.2214853268758366 123 124 119
-0.4723547577293720 -0.0637100834482234 1.2345248552668426 169 170 164
0.2859788290672503 -0.0643491936469958 1.2162853296479772 99 100 94
-0.3820123798851587 -0.0613814847134957 1.2301803123837463 168 157 165
0.0429703551073079 -0.0392497366731675 1.2271211569613145 138 135 126
0.1510180428593639 0.0127335963856700 1.2445385954229953 134 132 137
0.2061373554705794 -0.0225460103397051 1.2280696058059288 114 114 116
0.1423259159491739 -0.0654414407381674 1.2168378025696214 124 126 125
-0.1464649010045708 0.1159962994151565 1.2815738877656795 128 130 119
0.1920630992711965 0.0154971669274848 1.2406901598787490 122 126 127
0.4811204221602758 0.2477361068848705 1.3116482382031935 95 107 105
0.4666161943714078 0.2871702547429140 1.3246603439111562 66 84 72
0.1986000676930599 0.2039007353969697 1.3056026410118520 145 160 155
-0.6389908308289166 0.2407443696727385 2.9361089186351088 255 255 253
0.3970732340224651 0.2258830295647154 1.3072362961756889 86 90 76
-0.1033643937606300 -0.0040029661332415 1.2448188726990776 137 136 134
0.0321824645885717 0.0266067735135776 1.2510502681294609 121 123 122
-0.0520396175454823 0.1459628480922209 1.2925093282745750 162 167 161
-0.0083457640467971 0.1457807785038604 1.2941219445331706 153 152 157
0.1940528986182768 -0.1024776414332138 1.2246599492347574 107 102 98
0.1223230482975460 0.1915424719079800 1.3052432976002752 132 128 119
0.3326194464364334 -0.0097735360631603 1.2334642987981246 156 148 145
0.2462603494979614 0.1893064317069678 1.2946427702612799 142 146 149
0.0271554928711843 0.0237157194858381 1.2525166332789808 118 114 113
-0.1619575722435584 0.0554535707264891 1.2607614705640657 198 198 196
0.2775821192903512 0.0660072518940399 1.2563646785953473 87 87 87
0.0191751043027439 0.0794447379478763 1.2689275091831957 130 127 120
0.1622442516516324 0.1058400330761759 1.2738404388161499 95 99 98
-0.7598174498334028 -0.2699532915955215 2.9233606817302311 226 218 207
-0.7370815413770206 -0.2390371802898749 2.9059533057667704 255 252 250
-0.3479279016788785 -0.0908818836564890 0.9953649832415371 139 151 137
-0.2540250279412043 -0.1486372055714873 1.1992665083948770 128 122 110
0.3092037208613204 0.1533540928002707 1.2867575883130451 149 152 145
-0.1579871382779058 -0.1270134424113651 1.0944470094554015 177 171 173
-0.1587271923286684 -0.1281660375799440 1.0985225195988657 123 122 117
-0.8435092804291073 -0.1628723010644168 3.0411427105757438 255 254 255
-0.9677456472031095 -0.1762511624941958 3.1659431224737431 255 255 250
-0.6927344343282987 -0.1089979397646690 2.9120622959725893 215 206 197
0.0248196889905276 -0.1529529256620771 1.1911876000434265 155 159 162
-0.4461304729264201 -0.1291834758375907 1.1565325392834680 218 205 214
-0.5932172530140385 -0.0810487653720656 2.8244328538891628 254 220 193
-0.2439169725318782 -0.1439275859016738 1.2016091341106647 140 139 135
0.1102308750265394 -0.1033946193914418 1.2065278019807097 173 172 168
0.1067437404222276 -0.1015239054621156 1.2076599535236576 171 166 173
0.1604046173303337 -0.1328948547960266 1.1951919066578589 155 156 148
-0.2816981410103320 -0.0719123589823346 0.9162458816645909 108 108 98
-0.7136465941035605 -0.0334792614208078 2.9580900009357105 255 255 246
0.3307013885689713 0.2180025273294897 1.3057464827822594 143 145 134
0.0204142063439790 -0.1108188717567714 1.2058811508339859 124 124 132
-0.1057655063370878 -0.0896309670287371 0.9697112944283043 181 184 175
0.2184614593764020 -0.1230921895113960 1.0266476061444496 175 174 172
-0.2056427275435675 -0.0868100354479731 1.2184700754811451 194 194 196
-0.4298418511253091 -0.1031897051798344 1.0468966890267903 191 184 191
0.1161028964843466 -0.1492513983231767 1.1326827222461753 187 187 189
-0.2690964886576038 -0.1177512814686392 1.0840140694405596 194 195 200
0.1229546485435577 -0.0708894884737138 1.2167129131116878 184 175 178
0.0282934364486337 -0.0552315808190414 1.2247377949773406 185 189 188
0.2111561630584314 -0.1513685770546450 1.1890851991807718 108 112 111
-0.1761191043251349 -0.1480245721481452 1.1981174813095916 153 141 143
-0.2235721062318351 -0.0422471965126946 1.2326338240985191 170 176 166
-0.3547153068046214 -0.0070932329054812 1.2507435233372450 197 201 187
-0.1573596154506376 -0.1355531501441016 1.2022416577151094 174 173 179
-0.4599020908568489 -0.1277605768484159 1.2140578266461894 149 151 150
-0.2165846955162631 -0.1260278391776919 1.2077628711527091 157 146 142
-0.2111597159159939 -0.0108190679628561 1.2437773287118559 155 156 151
0.0267784591405264 -0.0066752418412687 1.2407388510246469 117 115 118
-0.1550938695702964 -0.1158496629285347 1.2096739172566660 151 153 152
-1.3295260444266570 -0.7011798218283706 3.3599799791209324 226 212 211
0.4378102809337172 0.0168655621646760 1.2413913985231264 105 109 118
0.0320150468084958 0.0265009154930963 1.2515062044256138 122 124 119
0.0074749209591641 -0.1002351570246177 1.2089659757060558 179 181 178
-1.2020664285965259 -0.6029716879585859 3.2642938309386915 228 219 214
-0.2109707940434169 -0.0863035320924118 1.2183884104692055 189 186 195
0.0234584654792372 0.0542230240264075 1.2617060064652978 200 197 182
-1.2863407606546031 -0.5709013656156585 3.3556637255153179 220 208 210
-1.3494300918635558 -0.5455003605661509 3.4330214487909489 224 206 204
-1.1811923711254224 -0.4999935460260252 3.2794449635855116 210 205 209
0.0443456230708639 0.0834935657206052 1.2688391585484504 181 181 173
0.0544541727039260 0.0862989286373494 1.2697527722904365 142 135 127
-0.3158880044495472 -0.0554817576556561 1.2326922990000710 155 156 150
0.1097257264143214 0.0910877418747140 1.2712654729061295 100 99 104
0.2547880238030300 0.0928615945047658 1.2658579212282983 163 167 166
-1.1833895378623240 -0.4389745137744306 3.3005855897340459 226 219 213
-1.2231698621570979 -0.4436753212745153 3.3338550409872711 220 206 203
-1.2635033187414264 -0.4517922866104433 3.3742395964745775 221 212 213
-0.8840671392621668 -0.3414738390113400 3.0249015972145941 255 255 243
-1.2212878576909281 -0.4189633468178343 3.3426510042086615 211 207 206
-0.3465676762591638 -0.0399331135129428 1.2405021561927576 148 145 156
-0.8031549461098096 -0.3152528394148055 2.9573840461491030 215 199 184
0.1587019572820991 -0.0381215985366843 1.2262928487980103 147 149 144
-0.9891474234612946 -0.3418511137153930 3.1349318135787083 211 201 202
-0.3825086718227993 -0.0301014646898895 1.2430433815764974 177 187 197
-0.6058360999193032 -0.2428285783988575 2.7833479337614309 86 87 89
0.1115828486637656 0.1197893199667468 1.2797229648384283 184 194 195
-0.3928706144651616 -0.0243323514680791 1.2459943486505429 175 173 178
-0.2427678424067214 -0.0226064006265920 1.2420724388250199 195 199 198
-1.0927756423665107 -0.3293644126249743 3.2459783354663156 223 217 205
-0.9493337867115476 -0.2935974712812167 3.1124772702224779 211 202 193
-1.1532985366957138 -0.3359468124158060 3.3100041691926383 249 237 237
-0.9900654311062614 -0.2920774679874373 3.1541545318105388 205 189 189
-0.7774578214659297 -0.2476846315309821 2.9559754599981432 249 239 247
-0.7352258385901466 -0.2373776593047919 2.9093578617205935 210 188 191
0.0243959632521451 -0.0088556881601301 1.2406576448787585 144 145 139
-1.0526686899599440 -0.2799969559443377 3.2236859479850968 225 214 208
-0.6836998286049525 -0.2047850714363915 2.8726771286426729 162 137 143
-0.9067530232044999 -0.2416241489454356 3.0772238486213515 255 255 244
-0.7006203082800794 -0.2022818840628284 2.8873257531583580 255 254 244
0.2609328838361564 0.1464862674335334 1.2853035774321993 105 108 101
0.2728205826790348 0.1476910121908957 1.2856086220467626 160 161 155
-0.9452867540575030 -0.2385422653838600 3.1243250124462190 221 215 217
0.2242804634407288 0.0002667255646859 1.2377822017423519 116 120 119
0.3071911447995560 0.1529583283586150 1.2865505262073069 104 100 97
-0.8983391640165498 -0.2149962550474875 3.0886310842115936 253 239 254
-1.0072974942387680 -0.2340295463937192 3.1936127273752670 230 225 222
-0.1556482309749872 0.0059360401116954 1.2481644714136653 91 92 76
-0.8001395274405199 -0.1933876511158204 2.9948391596517192 224 205 199
-0.2020146726891183 0.0095810315898073 1.2504304591410889 169 178 175
-0.7156939050166673 -0.1543892166976666 2.9173376722622990 255 255 245
-0.7354476780120203 -0.1506454716368489 2.9404536959245102 208 203 200
-0.6938335068367477 -0.1333703488551831 2.8962383641541098 255 255 245
-1.3086441843625878 -0.6694408940683683 3.3549094437512470 204 191 185
-0.6300451412489529 -0.1175983941401347 2.8444022578710992 255 251 223
0.1408137900555101 0.0302379343054452 1.2489071516479100 153 153 155
-0.6261831357627290 -0.1064111676302883 2.8434978050764044 188 175 158
0.1899771002289436 0.1815720549974959 1.2963168481771870 103 110 118
-0.6072990433462245 -0.0846963270931907 2.8358901108592156 255 254 219
-0.7567021185587558 -0.0891640372579467 2.9856322415609045 200 187 178
0.1829030332647736 0.0433826723163911 1.2530362047633152 141 140 146
-0.0829809628346150 0.0472519481510271 1.2587458848505451 167 168 162
-0.2489587728466143 0.0528996753964625 1.2642053403970512 146 147 141
0.2828644008567431 0.0644549495396662 1.2558126615822682 131 126 122
-0.5356633801871370 0.0000249417221606 2.7854268583601791 223 217 227
-0.9895381768226582 -0.4614080515685091 3.0964132690768453 206 187 172
-0.1319612844642811 0.0686261098230176 1.2661157472104794 174 180 180
-1.3528935654894163 -0.5544693202679892 3.4348430754782160 214 193 192
-0.1398137052820465 0.0712506857953920 1.2660836567260805 130 138 127
-1.2605488741422963 -0.5210895973055069 3.3478356751568206 195 186 171
0.0216432699313211 0.0740297023690013 1.2684633261054696 154 146 143
-1.1348708367866642 -0.4685030503802759 3.2407717565973901 213 203 201
-0.9277710036613745 -0.4064264283323969 3.0503769712911817 207 187 189
0.1104010946482943 0.2403611010730747 1.3175748371334386 77 65 65
-1.0093929068461551 -0.3909602129935245 3.1416025131625323 204 187 177
0.1108877458989421 0.0953461799825766 1.2721171169222198 161 166 160
-1.0048202648390212 -0.3866218230163284 3.1395170900125633 255 253 255
-0.8449457399277114 -0.3442066509187474 2.9876173632958571 186 180 168
-0.6828253747309552 -0.3028939000952603 2.8291295476636984 99 111 159
-0.9474337123402919 -0.3653981450935814 3.0882882612925062 185 168 161
-0.7761562880985662 -0.3244324496581288 2.9266212897000270 208 187 196
-0.8035294298488426 -0.3262454230163300 2.9518100624469943 217 188 182
0.1650928440659147 0.1097771391171964 1.2740817129043536 112 116 127
-0.1768029694081872 0.1138775384806877 1.2807856351509013 146 160 147
-0.5553116818787331 -0.2428585281511856 2.7395982592751187 152 142 130
-0.8627927559450137 -0.3051183269325143 3.0198064600826946 205 189 164
-1.1806173333320575 -0.3753809512115757 3.3241523111529294 216 204 206
-0.6676789322238811 -0.2454805105752611 2.8372347926020689 133 119 132
0.2461659655170385 0.1221281677016354 1.2761417598267408 98 92 96
-1.1992081576918261 -0.3553325819459587 3.3488118874514989 215 205 206
-1.1572363134827213 -0.3389207257597050 3.3112048920634951 215 204 184
-0.9082488119307416 -0.2858643805344599 3.0724494770334112 203 190 174
-0.9215143867737844 -0.2701743955190692 3.0895848866763100 200 195 189
0.0598912973193703 0.1349168005717913 1.2858623206274635 156 157 151
-0.7586124775556325 -0.2290582389348624 2.9395241917603010 188 171 164
-0.7359092159693090 -0.2209115682973645 2.9215051054574950 178 158 159
-0.8225557640668828 -0.2222895747006068 3.0022337857723591 255 254 242
-0.7579476762436200 -0.2098037530606570 2.9408801843972734 196 179 169
-0.7583433513406354 -0.2013740179381210 2.9477872377855867 195 181 178
-0.7356877462564909 -0.1903398139523143 2.9244973378468777 189 177 161
-0.9254448316917928 -0.2247620462569566 3.1119774274739531 198 187 185
-0.6981870393322306 -0.1792605906007307 2.8951424196734972 199 183 170
-0.9614707266542015 -0.2173738160746277 3.1557338940904440 253 246 255
-0.8811405592508614 -0.1952854058116277 3.0776252004541607 199 183 170
-0.6971349897588582 -0.1586355851434399 2.8985411408604289 158 158 156
-0.6924671555424838 -0.1437103355539123 2.8997448389756530 181 164 156
0.1862970816180365 0.1685022479672567 1.2922099148084703 154 164 173
-0.5942139601598688 -0.0846564270746048 2.8247325568654458 178 147 118
-0.5838906492475157 -0.0644241978164801 2.8208337876825591 255 248 203
-0.6498673598508202 -0.0670469817456176 2.8834440010864757 207 190 174
-0.2914591912250201 -0.0593314384490571 2.8315845297694220 237 242 246
0.1056625539741681 0.2251887750770606 1.3147466003636956 125 129 102
0.4141563278578124 0.2427925746077555 1.3128708821564057 144 155 147
0.3378338683968641 0.2465278058803621 1.3163302105210273 132 142 107
0.1763262449075940 0.2639225028040773 1.3233553482476161 48 52 53
0.3886506086304781 0.3044514436762137 1.3293717310217201 101 113 103
-0.0570702950107763 -0.1277141376782255 1.0883033110537952 192 194 191
0.1088215511931038 0.0766166281997921 1.2663553654859097 167 168 152
-1.1836178120685918 -0.4631009310111559 3.2921569727650524 182 167 162
-1.2507348859325524 -0.4727193560367161 3.3493457349662363 255 255 251
0.1712118338002381 -0.1671658446766294 1.1822516939204999 155 148 155
-0.3111565721065419 -0.1212408979816513 1.1107955340880917 189 189 187
0.1463896295538329 -0.1598471736017077 1.1860193545135136 121 124 129
-0.1161197102582016 -0.1563544771559783 1.1927197062811092 183 172 168
-0.6837787618999154 -0.3227575028155140 2.8284645194276639 213 227 238
-1.1358257496895567 -0.4300240276306911 3.2542649519174263 189 180 165
-0.0856254488733851 -0.1521340518566804 1.1947745268907966 131 135 144
0.1939040213720693 0.0954039809793258 1.2689669378780786 114 119 115
0.0227212275986912 -0.1500849003031500 1.1915378894360338 103 107 116
-0.0983088832693569 -0.1507253436330481 1.1967503994141937 108 99 104
-0.1518998776982816 -0.1458516580445483 1.1974929242373236 82 84 83
-0.4585559624077959 -0.1312397687458091 1.1758353123001106 172 176 179
0.2545274339382793 0.1008703384796802 1.2684134194553514 97 93 94
-1.0088125329754878 -0.3701854357561021 3.1497888074669165 151 137 134
0.0983900850237997 0.1084892921865663 1.2751850884556615 113 121 110
-0.1773519854650240 -0.1328588598970688 1.2039429591248267 128 126 113
-0.2383943740575760 -0.1297910462108670 1.2059862236035432 119 116 109
-1.1926195198824932 -0.3950198600093344 3.3305142190828501 254 254 255
-0.7546092459499882 -0.2929254488734507 2.9122073481919375 244 230 221
0.2849725532259151 -0.1222672140719842 1.1983230873650683 127 129 124
-1.0098882363830122 -0.3486330473034011 3.1559861776481735 195 176 161
0.0574604021372571 0.1127781528697497 1.2786421807067241 136 131 135
-0.7138869932521436 -0.2757473647270647 2.8705030301413381 104 87 93
-0.1891446859161896 0.1188341540771491 1.2833478708724630 62 70 59
-0.4760983052793289 -0.1183069982938586 1.2169105211702391 149 150 154
0.2648643773240220 0.1173647149200799 1.2735028753484861 133 122 126
0.0163839657450078 -0.1162674372277634 1.2046511439605667 131 131 133
-0.5778934816430159 -0.2377531228187720 2.7597056008490015 148 148 174
0.0564953483867567 0.1187459065814768 1.2805885060883555 153 158 161
-0.5356789091416075 -0.1155191815634782 1.2189946782094567 130 134 117
-0.6534658748386903 -0.2344747364882526 2.8338026593181915 81 74 82
0.0616752642261780 0.1263520003433843 1.2825902458091414 174 174 172
-0.0571775828934461 -0.0661740422660474 0.8850593551259280 122 133 117
-0.2677084603344060 -0.1116834137505761 1.2128255417952265 151 148 139
-0.1458011130756142 0.1300523195659115 1.2862723421064748 87 98 84
-0.6472133500514047 -0.2272030056059950 2.8277483085677031 152 142 150
-0.3265188450072065 -0.1107048543798639 1.2158216176055678 144 138 126
-0.3408817435071098 -0.1111147079994558 1.2159324568810592 137 132 126
-0.3028265473561095 -0.0622361889354527 0.8862483121619804 165 174 153
-0.1491886990323798 -0.1075529779282877 1.2106391624871715 119 117 118
-0.4302378089867781 -0.1084120398700926 1.2181196746143075 147 145 150
-0.7805674266657995 -0.2513302577499624 2.9570296438590056 172 149 141
0.0087881429987648 -0.1054745199433870 1.2081482562666066 142 131 127
-0.6766673581279200 -0.2249934358150262 2.8482139715420391 163 159 160
-0.2833960433193811 -0.0722933708215806 0.9180021672099220 176 180 157
0.3493068315303728 0.1330455031962767 1.2776963199332254 125 131 127
-0.6003230486380998 -0.2070282132927688 2.7896041489635510 170 156 169
-0.6211671386740183 -0.2040345070905034 2.8068022801951513 199 190 211
0.1449542622564279 -0.1032488534669989 1.2054558977006526 121 124 113
0.0378468961129802 0.1385707626828737 1.2877585374469338 137 138 140
-0.9894956552515636 -0.2729700997839981 3.1625006685837995 171 152 148
-0.0653723249754390 0.1414523568576718 1.2899528074997519 108 104 92
-0.5362130546231804 -0.1005498792700126 1.2207434892089772 150 144 146
-0.7140322267314504 -0.2029049028772359 2.9042332320687323 151 138 130
0.0779900469858338 -0.0999476189477034 1.2097323234954964 112 109 102
-0.6990990750352737 -0.1983236005173674 2.8882147467672175 178 160 146
0.2455758376670897 0.1467704707786028 1.2854636982458338 172 167 161
0.3214815010595220 -0.0965348594645846 1.2065703900710520 126 122 111
0.3419022861747811 0.1560961163870145 1.2864172088107759 129 134 128
-0.0398271159099783 0.1572309413473468 1.2951832032058068 153 153 153
-0.1787432888557885 -0.0890915660661734 1.2168801281121013 138 125 132
-0.6714300645617807 -0.1613345299092116 2.8726618268704240 129 114 85
0.0030733792530270 0.1590534168264322 1.2953391366222105 160 161 163
0.0417757283357048 -0.0875147481479341 1.2128219616345910 148 148 148
-0.0777389488694044 -0.1037861583634444 1.0121483281823802 175 176 171
0.1065312903114408 -0.1203623435411834 1.0375713851135322 145 142 151
-0.2963149606590188 -0.0873429879149273 1.2211119989679726 132 127 133
-0.4157593747775872 -0.0873476368052098 1.2256782342548034 194 197 212
-0.4188800297921548 -0.0870379450623665 1.2260703191986739 162 167 173
-0.3826192147887755 -0.0854823538005478 1.2241834901093636 146 147 142
-0.6116793897570340 -0.1300262575836197 2.8272303256659796 169 153 153
-0.8804141360028036 -0.1680264902244668 3.0824830872884368 184 170 159
-0.3380600830487815 -0.1176688294611304 2.8168773075402522 195 200 206
-0.5869903918302836 -0.1033116971463738 2.8071291948937076 151 135 138
0.1831646794615521 -0.1380141048972201 1.0905330105970075 148 161 177
-0.6003506727164550 -0.0890504721099221 2.8315718878810556 253 209 200
-0.6062293188063770 -0.0891828339155645 2.8362686081430839 162 119 103
-0.2363556270696835 -0.1200985416277557 1.0832820379689203 204 204 206
-0.6264323325584060 -0.0891241236200584 2.8557366434062144 141 123 103
-0.3610567467618710 -0.0705189944317149 1.2296551812485865 146 147 149
-0.3193667727908606 -0.0796189471016497 2.8255720361892296 171 177 177
-0.5069362182255270 -0.0686613808759730 1.2354913254208526 171 169 170
-0.3163159729056220 -0.1234107444469747 1.1139266411016071 216 220 223
-0.1350902885802214 -0.0647632885665009 1.2240461614009392 124 123 121
-0.6698374101510153 -0.0685396112016362 2.9048248192088648 177 168 153
-0.7820717918716299 -0.0801955927847965 3.0139510467855395 146 127 121
-0.1332023623997195 -0.0627430198103395 1.2250058976351139 155 153 154
-0.1693416132279318 -0.0608669092720654 1.2269366697254998 195 194 200
-0.2740563704646651 -0.0604226628653795 1.2279709681668394 169 169 167
-0.1278840128276959 -0.1500197421580344 1.1960909251418299 143 143 135
-0.2723105350546756 -0.0309439307604320 2.8421348875739372 183 183 183
0.2753307382668118 -0.0573505557189701 1.2184528647132959 147 135 135
-0.0944052235355891 -0.1482663830381108 1.1979820327500961 159 155 144
-0.2440470021639370 -0.0538896960314370 1.2315520735061016 172 173 167
0.0994460134243417 0.2202540629816925 1.3114923144450517 83 83 73
-0.4673477147540929 -0.0532210025415773 1.2354227630656442 158 158 146
-0.0871281651373038 -0.1466914781444431 1.1986436851702682 100 91 92
0.3221448011507848 0.2219477857104681 1.3059783282364246 124 131 115
0.1951563441165779 0.2238472025421319 1.3108253768006719 74 81 65
-0.4534867909176971 -0.0512225545729244 1.2383921204851944 172 178 176
-0.1600223410985333 -0.1423613248177673 1.1994751949720583 136 131 128
0.1211875724325987 0.2273161818307715 1.3147686674972918 103 106 85
0.1083153387999810 0.2307159585812680 1.3140731495058677 150 149 131
0.2985308319070674 -0.1417826458754010 1.1907982974618183 132 137 133
-0.2792091637589170 -0.1390207035690298 1.2046381220039970 160 160 152
-0.2533836057407302 -0.0472179863082911 1.2378470255504268 154 155 141
-0.4046358815629176 -0.0451336643880683 1.2378166014509278 159 161 160
0.1543025796366458 0.2347921148779165 1.3158640935471757 111 112 94
0.0236852518836255 -0.0978662164819099 0.8728776863075596 55 65 28
-0.4946687269746425 -0.1306947763842093 1.2117542026196060 183 185 182
0.2220387375597253 0.2489147882340877 1.3170437074264156 143 141 142
-0.0809329809653718 -0.1261612185657368 1.2028195028038220 142 125 131
0.0617191114783789 -0.0975966887007202 0.8767952182973759 101 104 95
-0.4091183545210998 -0.0379011126588795 1.2407462204400792 165 161 160
-0.5098140454057841 -0.1278574549600367 1.2138810289369280 154 151 144
-0.4407683157400381 -0.0373125823986055 1.2411198106810555 180 182 194
0.1609201159827144 0.2540474468066451 1.3196456713768807 121 126 103
0.1584460045809625 -0.1250573463283176 1.1978461861623908 123 122 118
-0.3695530578808646 -0.0356331743111998 1.2404783528101717 178 177 173
-0.2087112766581312 -0.1231711825398012 1.2086468439483919 95 86 79
0.1941149021017444 0.2598588988501935 1.3199766424722801 115 120 113
-0.3246820705094582 -0.0307552719636827 1.2389877049583573 129 126 119
-0.4809468924549108 -0.0301402704650856 1.2461544468945478 158 158 156
0.1832312153242441 0.2637198329286510 1.3225147842619582 63 67 53
-0.5018379897091552 -0.0292529294222690 1.2457363736273899 167 172 166
0.0665301835415539 -0.0886765882297400 0.8746925965679357 67 72 50
0.1859509142002392 0.2733469682044988 1.3240795915925272 50 57 39
-0.4251646680759875 -0.1114507320986545 1.2171878493025032 124 123 119
-0.2599653516648031 -0.0242644543856291 1.2390138056000626 197 203 201
-0.0996505513183901 -0.1087826426217227 1.2098833419649035 140 139 137
0.4422524003764665 -0.0274867115681976 1.2293729365486561 152 153 158
-0.3211949178260982 -0.1043344498852548 1.2154155279957919 134 125 120
-0.2842645890472470 -0.0198480213767357 1.2411892652580034 161 158 149
-0.4021368460655790 -0.0190802233774354 1.2456789184926871 176 165 169
-0.3877154318199167 -0.0170007987730519 1.2476605160790348 194 193 199
-0.3660456979707729 -0.0159448633563301 1.2456470190757596 165 160 157
0.2151302917665519 0.2935476012550621 1.3335999623025290 41 43 40
0.3299052672076954 -0.0180976532644574 1.2302769725491716 116 116 108
0.0971508681655967 -0.0143453060617729 1.2364452548305824 123 122 120
-0.3019026419432144 -0.0962523794924904 1.2186726592651149 131 122 125
0.0953029639297757 -0.0960466182658832 1.2091389095235221 139 141 140
-0.4016516772622132 -0.0132062728238679 1.2481006513208943 161 161 159
-0.0740752666299495 -0.0927363530023274 1.2140279959813052 126 130 133
-0.4022234537835925 -0.0082963850362520 1.2496138173184057 166 167 162
-0.3119939065554495 -0.0080412147518593 1.2473135443739305 159 156 147
-0.3445172641108512 -0.0077365440911772 1.2492901439503887 206 210 209
-0.4660483590500961 -0.0892979056901192 1.2263962917385165 158 160 157
0.2490489109189672 -0.0815195609590324 0.8829926563891991 126 130 131
0.3067707166347038 -0.0085585330306171 1.2357426439971302 129 119 109
-0.3534409061473710 -0.0057873430226259 1.2514121379863163 216 212 211
-0.2311840566701867 -0.0828747211692359 1.2218983506220393 158 147 153
0.0555436546288491 -0.0721937271291700 0.8813209607989041 129 141 117
-0.2001733983754816 -0.0684490299660621 0.8835833840052872 132 126 128
0.4214221114449150 -0.0017267653742914 1.2361627197492755 127 136 135
-0.2788011770564734 -0.0669086969813391 0.8863446161823171 115 116 100
-0.3858301235769017 0.0020707363936247 1.2550967490349345 161 161 151
0.0283043998326792 -0.0732458259780394 1.2188339817476892 158 154 155
-0.2566001773806735 0.0048102732650881 1.2493589265817497 196 201 195
-0.0129995283053707 -0.0724896018130483 0.9027158898519316 127 141 124
0.1250111630330077 -0.0709414270101416 1.2161382865790649 130 130 132
0.1706502847511214 0.0093946688814329 1.2420019784574223 149 149 159
-0.0700382486947931 0.0098829205467591 1.2488514572514344 163 154 159
-0.3091808409678728 0.0114712197134568 1.2530414836055423 166 164 167
-0.0133317310300804 0.0110379555719213 1.2468523110373761 145 147 144
-0.0679038379100999 -0.0624805825926190 1.2236032057354298 129 130 132
0.1390908829295531 0.0156205012977646 1.2450045731751063 131 131 129
0.2525510591302125 0.0163983415521140 1.2416038664473545 133 134 128
0.1636135794389365 0.0166789566551081 1.2455683168516443 161 170 165
-0.3011482072267277 0.0190864612922146 1.2537432817406384 162 158 155
-0.3833396637928875 0.0201868744657583 1.2577512096399508 165 161 162
-0.0785853219124355 -0.0495710736548139 1.2269914256459025 133 130 141
-0.3541657294813549 0.0252893980799414 1.2584287961317295 123 120 115
0.1106441116070338 -0.0483605779064408 1.2257132626398057 101 101 91
0.0498559273817245 -0.0474196130335423 1.2272293801136711 141 137 134
-0.0386790004889587 -0.0457317488555418 1.2278589434451552 85 83 94
0.3073812717427459 0.0284438911147288 1.2452880395221051 140 143 134
-0.1486435784216140 0.0335377163668645 1.2555431798608416 163 164 159
0.1246305624490183 -0.0409929451872909 1.2273073235577716 141 140 146
-0.0701582728607786 -0.0392020739266307 1.2314865751130246 198 201 194
-0.4017316717300334 -0.0377161962210729 1.2399838223940027 150 150 148
-0.3477956732670754 0.0384582548951954 1.2619750456614356 73 70 61
-0.1613876813052848 0.0375845355277377 1.2579706443472289 180 182 169
-0.1613713972861187 0.0375005643044790 1.2580825379759106 181 184 173
-0.3091945685536108 -0.1003515155996407 1.0149882999393223 207 207 207
-0.1178530280464647 0.0393707685888165 1.2579098719135233 159 169 160
0.1168301466215068 0.0378503952540693 1.2542286480677591 164 161 156
0.1213876663510628 0.0379814916535296 1.2544130179701296 159 167 144
0.0719204124550685 -0.1258525943963708 1.0560027383864197 148 153 157
-0.0671449588094413 -0.0310898542247144 1.2338778245546205 112 115 106
-0.0655773259697637 -0.0296695572964165 1.2348453730782027 150 151 146
0.1239550900122614 0.0421345741274160 1.2560950630641150 174 174 166
-0.0197700613069361 0.0437059293840374 1.2583858583677423 126 122 123
-0.3273668522693327 -0.0269768244258887 1.2408861565341123 174 178 179
-0.0177446633172588 0.0479440298677696 1.2582762472481941 134 137 130
-0.0699800284489344 -0.0244136765128464 1.2354293042384958 185 185 177
0.4337981794893601 0.0475791604521277 1.2505475794316334 113 129 126
0.1015059546225314 -0.0201745307599369 1.2331330548445507 103 105 102
-0.3238196281244202 0.0605875676569863 1.2684562220755924 127 132 110
0.1069403010493372 -0.0145212334990971 1.2356431804133716 132 125 119
-0.3363516800779172 -0.0125299818191835 1.2481355967773204 181 177 174
-0.1232634735430458 0.0691199545411113 1.2698836617716673 165 168 161
0.1245506160612482 0.0721211049455474 1.2656891094419074 159 161 156
-0.1728658395684857 0.0785208399592877 1.2688222532986666 93 81 85
-0.1556818364102300 -0.1397809184655524 1.1387190307924990 131 120 126
0.3326184327209995 0.0754300098118731 1.2623831952277262 162 162 162
0.3010924935242413 -0.0002401408637293 1.2378460888101670 83 79 78
0.2235459130582531 -0.1655862652590827 1.1829412481063419 69 64 70
0.2934312468930571 -0.1650778747634367 1.1823464763300979 124 121 130
-0.3794505888334619 -0.1225310036264109 1.1218072269965469 214 212 223
0.1585637046063796 0.0115452155001406 1.2406288726919703 144 141 124
0.1193800687200157 -0.1609546735258176 1.1861278351243956 77 78 80
-0.0703987874811334 0.0861478615653404 1.2692569684857171 131 131 129
0.0704870556943936 0.0848914161588194 1.2692694442618313 137 132 128
0.2232185541285934 0.0835993418251534 1.2692783110455426 155 156 161
-0.0398655517528582 -0.1565739999731400 1.1913949785151097 122 122 124
0.1002655176224367 0.0875233483480744 1.2697826837321469 165 168 161
0.0302474736851111 -0.1548507732974063 1.1907340237460242 142 148 160
0.0953117551442887 0.0914110689745573 1.2705726028286279 143 148 151
0.1695318967946946 0.0932181979611395 1.2693458974950778 124 128 127
-0.7177767194217679 -0.3228846105233961 2.8637083514101702 96 83 93
0.2035473405751763 0.0261968877555825 1.2460624129161428 162 160 161
-0.2187713469950897 0.0973910725476429 1.2775076786607411 94 94 86
-0.7652608056706813 -0.3341514773601931 2.9271470405986637 115 115 117
0.0167364762682587 -0.1490283737967982 1.1914609455935301 126 136 148
-0.0543502974481341 -0.1492345221260616 1.1952092094145785 124 128 131
-0.2562238456502348 -0.1480550488043563 1.1978009237815403 204 199 205
0.1701450533543844 0.0985200049276145 1.2681693170212640 161 167 157
0.2142920439940411 0.0297294195377296 1.2490964900957291 176 181 177
-0.0379963534108318 0.0996977888840557 1.2759798673227134 128 129 124
-0.6551899969791406 -0.2963382575134398 2.8126991812075710 102 94 92
0.1459620770331586 0.0323787648159423 1.2500479673120495 188 203 198
-0.0912998576825764 -0.1459143096201364 1.1990997448388379 89 64 68
-0.3919468805443409 -0.1409299752781881 1.1983553579881718 135 129 117
0.3371763979820265 0.1052101248574748 1.2705312769561603 183 184 186
-0.6938297626036406 -0.2890925582630982 2.8505306030976261 78 75 92
-0.6537077276557927 -0.2804449304966140 2.8145974461764305 89 88 94
-0.6079120707645168 -0.2677010829023720 2.7696273104536706 99 80 84
-0.3951237864706282 -0.1405306131849045 1.2033626979156340 167 162 168
-0.3255432365660417 -0.1409228142988893 1.2040073089861452 124 128 127
-0.0863204934139015 -0.1405721614561664 1.2003397180499886 138 132 132
-0.0473621355427658 -0.1386778899105688 1.1986614110121170 98 90 88
-0.7381506832506055 -0.2917332695702836 2.8941163587538483 83 81 86
-0.1740548473070618 0.1130101142148916 1.2797101593623175 68 69 63
-0.0668327009652267 0.0475971191758415 1.2587683642682239 119 111 109
-0.3443021373988231 -0.1376997420009627 1.2069520480678597 154 152 153
-0.2545406257564702 0.0517509090992859 1.2638548156912226 137 144 136
-0.2454820029170789 0.0535674945181518 1.2637753299610321 173 177 176
-1.3624080779381247 -0.6003574780622077 3.4337094315584422 253 252 250
-0.2931236731935516 -0.1347925926175612 1.2063313835760852 121 119 122
-0.2501671750059605 -0.1345272606693928 1.2049647269332859 103 100 107
-0.0672101984959885 0.0594011184539814 1.2618084976487356 82 83 69
-1.2002962577533045 -0.5385447775006990 3.2801036383953552 211 185 188
0.0178236756633844 0.1197501848019829 1.2813365401923569 99 101 98
-1.2008452018360132 -0.5386826062331559 3.2815328718161814 193 177 178
0.1003287030929838 -0.1301794271388975 1.1978044564552903 117 113 114
0.4263115555077443 -0.1359443118067404 1.1958547224140381 129 130 124
-0.4739159763593965 -0.1317889952114251 1.2133790753109668 139 145 141
-0.1763229859377747 0.1236448010955748 1.2842765569013910 41 50 45
-0.3708556771964470 -0.1290787113901623 1.2107700161047963 105 110 106
0.0997262330909652 0.1248820797295525 1.2806259697863926 155 160 154
-0.1977803369863555 -0.1272018912940034 1.2059805670765966 135 133 118
-0.1718510827501837 0.1266824088008547 1.2851440122494799 102 96 98
-0.1510218288295867 -0.1256386301741519 1.2056713168911912 118 112 116
0.1822672467069395 0.1288690866800186 1.2791738638171848 149 155 153
-0.7124995715144401 -0.2391361407438502 2.8869068010983967 129 95 60
-0.2684438999097132 -0.1244666578406006 1.2097260959935299 185 184 180
-0.2467966467325271 0.0773681647283641 1.2714983691663651 176 174 162
0.2358325668753804 0.1359313753528712 1.2814834111579243 132 141 138
0.1072728253389701 0.1374250672983388 1.2843635923496877 158 170 158
-0.4415162201181865 -0.1225877983579339 1.2137468527777029 152 146 148
-1.2531680464905277 -0.3283307676080996 3.4130129422828950 253 255 254
-0.1598936376256356 -0.1203532932389538 1.2079550305496114 135 129 129
-0.4019235718022253 -0.1210671954778052 1.2140902893990249 148 137 135
0.1637061899779735 -0.1201881766106583 1.2002105649236161 143 135 124
0.1610079134310429 -0.1200063840387516 1.2016074524725899 122 114 103
0.2209210018075713 -0.1199970886858924 1.2003351575948491 101 105 106
-0.0264926700851501 0.1406415070207011 1.2911386275113645 162 168 158
-0.1890196004049003 -0.1178072020358306 1.2098041832355455 110 106 97
0.1415468049180948 0.1412034959834315 1.2850540562157020 127 130 135
-1.3198474838282248 -0.3241050657925344 3.4844370586661295 254 255 253
0.1889636173278763 0.1442064296389502 1.2855542746117199 117 133 132
-0.7069726808425300 -0.1984947031207144 2.8966426265781755 255 254 255
-0.1077492292572868 -0.1135415983389785 1.2066561009039809 141 129 129
0.1350170594113042 0.1472813797915130 1.2895441901372369 160 166 164
-0.4542983576775163 -0.1153599308711538 1.2168072220187045 161 159 162
-0.1978946459624814 -0.1136924029908279 1.2107105560451425 95 86 89
-0.3167982358479245 -0.1115354724981188 1.2139106729464331 120 123 114
-0.1158930644417433 -0.1109062178476770 1.2093668200979180 139 139 137
-0.4296735935203836 -0.1121956142143556 1.2168149470573566 123 123 123
0.0519047048449910 -0.1104557040064192 1.2058357592484021 124 124 116
-0.2383079036158252 -0.1089090047306441 1.2120739509562350 127 128 120
0.3248591661234993 0.1555667836875262 1.2871039335388574 140 151 147
0.0551397785863218 -0.1079358509752986 1.2062806439370390 109 104 101
0.2083737931783028 0.1587950538848439 1.2903577826679540 118 124 114
-0.0070370686366682 0.1595012019887088 1.2953750802354633 153 156 145
0.0004632191988455 0.1598489357031814 1.2959451967753823 130 132 129
-0.2950477676616050 -0.1039798175258919 1.2163847846024027 102 102 94
-0.1506009886612847 -0.1007629805596391 1.2131991031447635 111 102 107
0.0021340408429319 -0.1007883857664632 1.2092070865197138 130 125 129
0.0684163911556296 -0.1005498028481143 1.2082983583626394 124 126 121
0.3504396491858595 -0.1019162692158588 1.2032297898400204 133 129 130
0.1181066955778355 0.1734727365533165 1.2969245698102796 142 140 125
-0.4540662611796813 -0.0996887150902376 1.2229290304274660 166 174 176
0.0808029325741680 -0.0965667512930421 1.2089252538881214 146 140 140
0.0520968195922569 -0.0937346407285167 1.2104463731144339 121 113 111
-0.4227685535560646 -0.0950260713084603 1.2232861285914098 172 169 180
0.0579887909095010 -0.0935768673138857 1.2117372672037576 130 118 118
0.0452371525086137 0.1805028419227249 1.3005911398630725 112 113 108
0.2185461969959283 0.1808080505846541 1.3005869496153502 138 141 134
0.1762052160435168 0.1827514554014637 1.2973073410027016 124 133 128
-0.3405981315523331 -0.0919118822515683 1.2231233364346228 156 150 154
-0.4066494330789452 -0.0946884881352826 2.8249498560114268 214 210 211
-0.5522089839482816 -0.0807222276898171 2.7897789661240147 142 135 129
0.2495779157544487 0.1869255306234930 1.2973025661091948 152 153 158
0.3153686662820015 0.1907138879132608 1.2969509338609662 120 121 126
0.0513526685386861 0.1908979009354121 1.3033434932105661 103 104 99
-0.3202383754427302 -0.0858607849053345 1.2228898264078480 167 156 164
0.3250506139703200 0.1947176321633367 1.2975577941104086 137 143 139
0.1673247016416019 0.1951692202688676 1.3020131799293013 138 145 138
0.0286272792450773 0.1970068760536103 1.3052692008207272 108 107 105
-0.2772436255982218 -0.0611783606707093 2.8316172693562462 230 232 231
0.3169290783301994 -0.0826246704211083 1.2100611998571682 113 109 108
-0.0251885224430378 -0.0791739335512179 1.2164325714607798 147 141 143
0.0379428823579021 -0.0776898442585695 1.2158093370476382 149 150 144
-0.2983501602242516 -0.0778535443377666 1.2247367122364912 127 123 114
0.3375675832887101 -0.0805874906738247 1.2121279809641485 107 109 98
-0.1358179281921803 -0.0449335404100590 2.8418965578530253 191 201 200
0.3557298881489103 0.2071327247258349 1.3023515307102582 153 158 161
-0.4025102159783454 -0.0752552686288916 1.2304396497102159 181 193 193
0.1367102566424011 -0.0760845400477514 0.8826307100920163 110 109 104
-0.2783250563978626 -0.0333221973914783 2.8510029672679873 215 215 215
-0.2210710444248804 -0.0293613423444728 2.8413075237757859 184 193 174
-0.2070630598832997 -0.0278751413537115 2.8373248260096577 237 243 241
-0.2000779810761134 -0.0258873485890233 2.8323231516581036 207 208 210
0.0798716166496799 -0.0715291241793584 0.8821715456983350 134 136 125
-0.4032421880291749 -0.0206508998054723 2.8464811143068549 183 183 185
0.0414652146886400 -0.0698197294349685 0.8828052519709337 136 137 129
-0.4970462289640131 -0.0711586866600785 1.2332446932846135 196 200 199
0.4495204887047252 0.2158429431935567 1.3050976072281499 107 112 115
-0.0814799442486655 -0.0686670756302317 1.2234092168239212 131 135 134
0.3525955906463026 0.2193110647620498 1.3054114593365918 112 110 95
-0.1316398896016554 -0.0641438705740252 0.8840900302603442 172 169 154
-0.2125530180840648 -0.0554060141980196 1.2287948854622246 167 161 161
-0.3243423118662273 -0.0555621299759579 1.2315935846975625 145 136 153
0.1327147284597922 0.2340449995959231 1.3160993440798994 92 100 85
0.1079960353724103 0.2344819110738872 1.3155570425971237 70 63 55
0.1475749107837754 0.2358999503058654 1.3159458267900837 112 112 112
-0.0768874422292562 -0.0527563925780521 1.2268019114026401 176 171 165
0.3585808133041404 0.2385417400600666 1.3129497436481656 101 103 98
-0.0736373446562791 -0.0519092733400551 1.2273860613589995 130 131 123
-0.0120531228234873 -0.0513868778361734 1.2255919381589591 112 107 111
-0.5157856517695819 -0.0496627429280665 1.2398152494947903 183 195 209
0.3473719904275540 0.2477231887959899 1.3152376863689688 91 95 104
-0.5175951445998834 -0.0465422248885749 1.2403405010614779 154 168 171
-0.0073369369852270 -0.0456913686519553 1.2281370819151873 147 145 133
0.4331986369863018 0.2515648000295190 1.3143898728016827 102 113 97
-0.0152058255373805 -0.1038928938960379 0.9979505771946300 210 201 204
-0.2908556369632048 -0.0412846586678643 1.2342104643043159 159 148 152
-0.1057846326418481 -0.0414094055989320 1.2307779122905551 119 115 116
0.1798078738371454 0.2549383121494257 1.3199944305625124 80 85 65
0.1778167807150275 0.2597776520054823 1.3219054540392505 71 66 60
0.4349675716925593 0.2618786009597737 1.3188148577755705 106 107 93
-0.2141984959048360 -0.0979382738474134 1.0063569138874484 223 218 222
-0.1310149079053481 -0.0377738485786978 1.2326185123938305 133 136 127
0.1578429285262145 0.2639077095478666 1.3229558248667830 32 40 29
-0.2864498503759865 -0.1008979375007825 1.0187104184264082 212 211 209
-0.3426994873621569 -0.0362651368685395 1.2404964306114685 185 190 194
0.3268209898604378 -0.0370350863439262 1.2246428370150044 103 104 98
-0.2524763915791645 -0.0298430954130946 1.2398234240948240 148 142 146
-0.4778216632746308 -0.0287628788304516 1.2462515339173617 162 167 170
0.3701875876322727 0.2837901806327440 1.3240218297611901 116 117 109
-0.0750177092523618 -0.0263332399087420 1.2356472664137363 118 120 106
0.3295300091672264 0.2837296240791197 1.3262568027251955 117 126 107
-0.2412596818855880 -0.0246263110969169 1.2419137751448297 157 158 142
0.3232307671715586 0.2852488709326464 1.3258696758546329 97 120 91
0.0353111605945340 -0.0230222243619096 1.2329093309840586 138 133 137
-0.3843170386909051 -0.0186792488862940 1.2465428492928525 175 173 178
0.3376668749972375 0.2943958410024389 1.3295408928327015 138 138 136
0.4445784096996968 -0.0227633725937020 1.2314729230914274 149 161 159
0.3425471863332898 0.2991150728123234 1.3305567051205156 118 127 122
0.3306489919668368 0.2994547476647477 1.3323093759451810 191 202 188
-0.1354620630272877 -0.0129126259438089 1.2412176831373138 163 161 162
-0.1321002577941371 -0.0115697173998473 1.2414738879805711 141 141 133
-0.3773171135439564 -0.0081366901903477 1.2507612517612576 169 169 169
-0.1608260000165243 -0.0078793443497048 1.2439841535093012 133 128 109
0.3335584391397882 -0.0047347906632678 1.2362559065500178 177 167 166
0.0711903524829593 0.0011357007565439 1.2434578794933917 142 140 141
0.0404628622131814 0.0036003655735042 1.2422683603024427 147 145 146
0.0250806364453449 0.0101959077461427 1.2448448398419274 128 125 120
-0.1657502109808028 0.0106684158330855 1.2503294618532255 170 171 175
0.2925488020303844 0.0123817787344226 1.2403003405261828 139 141 127
-0.4334006017077277 0.0156132160392199 1.2572901859861088 93 103 95
-0.2615608484184976 0.0163041544885295 1.2516574754429717 174 174 174
-0.0566336338007736 0.0169763364483559 1.2461845192963505 152 155 138
0.1918036746167733 0.0176322260818587 1.2432087998466774 132 138 136
-0.1193789363183798 0.0276404536713620 1.2540509928819077 134 137 126
-0.2954725438455437 0.0314045035744042 1.2592452278417412 164 165 159
-0.3677506200312636 0.0319912809942122 1.2611835355655339 122 127 104
0.0116641170595891 0.0349565922032102 1.2539550814505924 152 153 147
-0.3610498774707492 0.0370812409885207 1.2618398716909063 121 117 105
-0.1092289028431142 0.0381018796517901 1.2573478527575912 143 147 130
0.1469391842102903 0.0381418208905674 1.2533514229204508 130 136 126
0.0354016725114192 0.0437418719266817 1.2569484876811698 138 137 142
0.4943317358680812 0.0447220572586134 1.2502261757248152 88 97 104
-0.1558639907170761 0.0484543794706249 1.2608859055492463 125 115 123
-0.1631862464737344 0.0507299589004566 1.2617253210168413 200 202 201
-1.1253187998794609 -0.5395303526922088 3.1975781678204851 255 255 255
-0.0294898857226040 0.0547690852622057 1.2613271715462930 142 141 136
0.4291213656725659 0.0563806850314286 1.2536746407424080 122 124 121
0.3068536975572204 0.0604820310217124 1.2561067378382273 130 129 125
0.2396887285099406 0.0650546854509851 1.2571490213578504 138 147 146
0.0384661129569294 0.0663683412823010 1.2641523662182084 147 156 153
0.2901382812765492 0.0729627259091841 1.2585391812699502 123 126 117
0.0375714273422923 0.0744918783627310 1.2668831468830293 177 178 180
-0.1588908364201742 0.0795650644360719 1.2661086833357325 123 122 118
0.1465082485110229 0.0771226563097897 1.2663086453996169 134 134 132
0.2323609001683639 0.0777282482611609 1.2620317881929684 133 142 139
-0.9365469799144792 -0.4097827783717226 3.0536782077534865 255 255 255
-0.0706366680149733 0.0818509913837113 1.2693002356522931 120 121 125
-0.2334974113697289 0.0866055732775354 1.2742928498407666 110 106 95
-0.1673069653757579 0.0869159003213595 1.2713079000145728 82 87 57
-0.0587064053684808 0.0891960381526368 1.2720327860723588 132 135 124
0.3373985110219219 0.0884149639994500 1.2648438706538065 144 149 143
-0.7510087773335266 -0.3377811201669167 2.8930881617495827 150 146 161
-0.1482353716883026 0.0945235384061518 1.2746455631150502 119 130 116
-0.9983775462810662 -0.3927306161194214 3.1246833642459051 255 255 255
-0.1797707661938582 0.0972732790793770 1.2734599346620876 77 79 74
-0.6081124575886605 -0.2952236130241359 2.7654541730165647 99 86 95
-0.7483896741299000 -0.3264631441356800 2.8953622363788205 159 161 182
-0.7695235437205300 -0.3309312880578069 2.9148895919065212 178 180 192
0.1225291729603444 0.0973952724453892 1.2747948058637060 162 168 168
0.2022525125060367 0.0988424695850674 1.2698627075019620 139 144 147
-0.1528279423629062 0.1023328131398255 1.2773428352774459 141 147 135
-0.9774613771967097 -0.3694028573482788 3.1145265741406765 255 255 255
-1.1754385523305415 -0.4119854383032132 3.3098193590455263 254 255 255
-0.6310449522110801 -0.2836471055513367 2.7891135083423291 100 85 80
0.0403464321650333 0.1036156307709148 1.2762962795030590 160 170 161
-0.6625129111095541 -0.2879748090452643 2.8193107775488211 152 140 152
-0.9798741871389228 -0.3581866344987065 3.1259870481931684 255 255 255
-0.6846172449526272 -0.2882319206192946 2.8392262052835848 168 169 174
-0.6831089229764264 -0.2757806703867434 2.8440521932794276 169 157 159
0.2040130970361339 0.1108606054423420 1.2738875695910976 140 141 146
0.3473480411960449 0.1135960081304771 1.2738216793116857 125 133 118
0.1888349724789639 0.1178817093563479 1.2760165536726569 111 118 128
0.1824845430959705 0.1190133039111326 1.2764322830556876 149 150 155
0.0209732297518507 0.1228684054499476 1.2825460758650413 132 134 131
-0.5834961731918655 -0.2252826333413895 2.7667415718608024 78 72 72
-0.7019030746282775 -0.2486789940771245 2.8731943366582726 151 143 154
0.2462162278653824 0.1255381019051836 1.2770526906099626 139 143 142
0.4423203101542531 0.1262251443766146 1.2741856885134193 98 115 109
0.1987665605158968 0.1266176400487437 1.2801092151538331 109 107 110
0.2243155028575728 0.1265940909043659 1.2806863990372543 157 162 158
-0.6985975206929484 -0.2409133558257447 2.8772620650550209 65 62 69
0.0366223931952440 0.1299521313144746 1.2836971687026144 142 142 142
-0.0480279689354113 0.1334690143792102 1.2880092843096060 149 150 152
0.2580836929191170 0.1339049519249014 1.2773459125609272 136 136 136
0.0354188009800791 0.1351095914228778 1.2854298812753593 141 146 142
0.1722482514562774 0.1376769048826481 1.2839932589653371 161 170 179
0.0001595820512922 0.1381358047435485 1.2895167432321986 145 149 150
-0.4761793059410080 -0.1900932464102011 2.7812435848260431 160 151 152
0.1768428774537522 0.1404746965559432 1.2854705659946675 150 164 165
-0.5529773879687823 -0.1807064060220434 2.7674367067030992 95 87 98
-0.9966882115139083 -0.2574179474939798 3.1671100172671842 254 255 255
0.2654857890479086 0.1469774739081386 1.2844617861345695 178 179 174
-0.6304322440086628 -0.1822826718996191 2.8319404163051081 111 89 91
-0.6608493932176691 -0.1858663540886650 2.8553329914279035 161 148 157
-0.4013358613142869 -0.1703000394724697 2.7982684853525903 206 198 196
-0.0241244383221518 0.1521090453446945 1.2942496618634916 155 159 158
0.1523223386710946 0.1568608434267748 1.2913801882921410 134 134 142
-0.7049654044709190 -0.1609450514221736 2.9017896641718797 255 255 253
0.1032350054260765 0.1637382635927783 1.2954939393864726 131 130 125
-0.4324920290712869 -0.1294263207303681 2.8137451270072780 203 203 203
-0.4242400251391719 -0.1281447963870629 2.8094356728599283 230 229 234
-0.0393280152215915 0.1693999026539632 1.2991024916765959 99 105 103
0.2598621760106067 0.1703860737188161 1.2919615567713085 145 156 158
0.3076940961111964 0.1746101873542409 1.2922621879750911 145 158 167
0.4321683238650321 0.1757845235885403 1.2916448736934862 96 102 100
-0.9122571791537438 -0.1547701576790125 3.1148512148049186 255 254 255
-0.8302699115559744 -0.1382142292146354 3.0405920893096536 255 253 254
0.2043599842793466 0.1795225557758890 1.2965605494331325 147 146 144
-0.5950797776809327 -0.0962407799050917 2.8175191523098904 182 164 176
-0.5608359221613772 -0.0884354372057179 2.7997083402362790 72 56 57
0.1368926741973107 0.1836213963685266 1.2998874642820712 130 134 133
0.0021609377529330 0.1859541193828765 1.3028787274396045 130 127 110
-0.2956922659339252 -0.0803705157473988 2.8116922692367092 203 203 215
0.3424294894592115 0.1892717906381364 1.2959727541637551 135 144 127
-0.3102665762537433 -0.0808014585936169 2.8260849525472591 208 208 216
0.2607520262849476 0.1894952351991510 1.2971470516935910 143 145 140
0.2026317302003744 0.1945899416520856 1.3023885333478837 158 158 158
