ply
format ascii 1.0
element vertex 686
property double x
property double y
property double z
property uchar red
property uchar green
property uchar blue
end_header
0.0466125870193098 -0.2123446315604708 1.7910981908777914 136 133 124
0.1668240640572199 -0.2054385816051919 1.7457984445200334 138 129 120
-0.1333631070302591 0.0005068353086665 1.4975661338410569 85 84 89
-0.2446453787687871 0.1074703159030398 1.2787226431061147 152 136 111
-0.0431066348968034 -0.2143296549796705 1.8087150213970522 155 148 140
-0.1558449753642430 0.1071864066887876 1.2572293337455127 157 156 138
-0.1730385052259829 0.0493816957242257 1.3706177080393309 175 173 160
0.1115671896086101 0.1040530259785926 1.1878247398259705 164 155 158
-0.2287905211860827 0.0499689038636110 1.3829120904774728 185 183 184
0.0062035807976333 0.0504273775413405 1.3285066433812622 176 174 162
0.0127062016547301 -0.2123349813741962 1.8031665318135157 128 125 116
-0.1506411932035734 0.1070425913424804 1.2546452956801664 175 167 146
0.0893652341277396 0.1043733657060351 1.1932049896034278 195 195 185
-0.3076889428861790 0.0000993984010934 1.4995451319410424 180 183 162
-0.2218834777432591 0.1083522554589140 1.2723946080413890 115 118 101
0.1223288125990184 -0.2052959942421642 1.7603242384194575 182 170 154
0.0787628924840600 -0.2064511070113329 1.7713001224081468 173 166 148
0.1465423042030407 -0.2022744565365105 1.7426367414847970 137 129 116
0.2321760106842984 -0.1977222427122311 1.7134525390061326 148 151 132
0.1560920428716303 0.0515811839657455 1.2938357884571918 115 107 105
-0.0202274727240665 -0.2084784362960284 1.8043689004369934 121 112 113
0.0882406202359704 -0.2028766285420298 1.7668047543793988 143 139 136
0.0015600598060513 -0.2077125957482418 1.7985813883726014 121 109 111
-0.0347063128700293 -0.2085736989889695 1.8090980727545773 199 184 179
-0.1527134622699939 0.1084563364662213 1.2538219595019482 151 153 131
0.2165099157140614 -0.1941121643539462 1.7131331650401036 168 165 156
0.1444227312227306 -0.1968246484114435 1.7364104699556284 108 104 92
-0.1553511824868581 0.0039963336273708 1.4940507853036373 60 58 61
0.0473934239920092 0.1065452864797463 1.2020048214704921 178 172 160
0.1086361441435893 0.1056030678017022 1.1853726565607139 165 157 138
-0.0302022301582736 -0.2047067713709686 1.7995272396340380 141 131 132
0.0028269489829837 -0.2026026001376420 1.7856845564640529 135 134 129
-0.0171399289706283 0.0537931117504265 1.3332344669749678 171 162 133
-0.2755306078503562 0.0031008861619897 1.4860754185632625 213 193 166
0.2761253896301220 -0.1885992087820279 1.6874714757396232 184 179 160
-0.2825000256159337 0.1108466952820147 1.2848479069633025 157 158 152
0.1747593185271052 0.0077098786304346 1.3974334349093787 172 182 184
0.2648524049742495 0.0538204861635236 1.2429898474575787 192 185 166
-0.2049389260747210 0.1099816781364708 1.2647933933373188 173 165 154
0.1579160640508003 0.0550004186437429 1.2924227122241827 158 143 122
-0.1512084947447180 0.1095465704891569 1.2521563331966761 186 179 151
0.1690911032533200 -0.1913752478746935 1.7189967253343543 141 136 130
0.0879515943057341 0.1065101963666009 1.1898592911160621 175 170 167
0.1808117112918260 0.0551441089658609 1.2775503190204909 172 155 137
-0.0580562203773070 0.0556102352492373 1.3434186205869618 247 234 202
0.0422943466028607 -0.1959487195523160 1.7615241211265642 160 142 140
-0.2821623817901501 0.0038493680188871 1.4587566165933084 148 151 142
-0.1219750877102639 0.1095050123479636 1.2445460929635899 145 142 133
0.0255424859366552 -0.1965677976115973 1.7702947565709781 145 138 128
-0.2369873854796951 0.1110802528451091 1.2711882098357350 152 139 120
0.2265877509365375 0.1057904980351513 1.1539304215893202 147 145 130
0.1095897225382518 -0.1894417038491811 1.7331191148064946 153 145 134
0.0931698933697648 -0.1894681607044763 1.7357699513838132 170 173 142
0.1869097994451559 0.1062112290941236 1.1627710000816787 148 146 133
-0.1283416386548283 0.1101373948473634 1.2443850542305790 182 176 152
0.1338441167582612 -0.1854077342569035 1.7176749987569850 173 170 161
-0.0821172438448567 -0.1952909262606385 1.7877532600094199 119 114 108
0.0961651065035831 -0.1870243341408274 1.7330136191425998 193 185 162
0.2610205879523133 0.0577864397270617 1.2380846186543086 189 176 157
0.1573819230902467 -0.1830041892418398 1.7059061198459688 133 125 112
-0.3053991172191192 0.0059692205499867 1.4896647939952670 195 184 164
-0.1441889165833715 0.0074832102547206 1.4867832279444861 47 51 63
0.0950493657201484 0.1080464364719087 1.1845478125598177 165 159 147
-0.2497826052023824 0.1127835323271022 1.2722270630996664 135 133 121
0.1891604087765215 0.0585637977395015 1.2566811981527382 190 175 144
-0.1553224172000559 0.0589089418548350 1.3474555289397248 177 175 154
0.0350829548350040 0.0598791881275543 1.3209238301923452 125 118 108
-0.0195222191431396 0.0602286837834659 1.3335418648198498 165 151 124
0.1759460709150053 0.0597027254750028 1.2739448412298491 216 218 194
0.0929087277745718 -0.1844309194327800 1.7281898444675039 131 117 116
-0.0301181121078485 -0.1901853325600888 1.7720124746765464 192 181 179
-0.0437793895236736 0.1107043965256606 1.2180818625989331 183 177 165
-0.2380446759340940 0.1135057315598893 1.2673508058216094 176 169 150
-0.3141457532306935 0.0072466608024832 1.4878742299347374 152 144 142
-0.0757455986222646 0.0618156764209340 1.3452910396379223 204 199 177
0.2473976427267855 0.1077238332430543 1.1443795342130476 184 175 168
-0.0388324676647077 -0.1896997170014275 1.7736687880476953 200 199 179
0.1909566134425218 0.0610381942372420 1.2482789108846903 229 224 195
-0.0785569066433674 -0.1911386975568377 1.7889575601876107 181 168 162
-0.2356166805306169 0.1148988886211857 1.2666190424584549 159 150 135
-0.0016839705911508 -0.1860850588370342 1.7544473352834451 168 161 151
-0.2198010243233992 0.1145432933524901 1.2588266719996695 182 184 173
-0.0579971126652349 0.1124303479416500 1.2199269040651963 186 185 167
-0.2472105783456803 0.0627421126308068 1.3646440593847573 147 144 135
0.2119378141528513 0.0130023998838327 1.3299907425133548 140 140 130
0.1676933187796914 0.0639391120351755 1.2963546985755370 79 67 71
-0.1044533925215173 0.0635350509903903 1.3444453991013499 226 212 183
0.0705273908319669 0.0640590424487180 1.3156095257373488 110 98 102
-0.0798756003306507 0.0643906953735647 1.3459611607664588 132 115 108
0.2737081342156967 -0.1722857028657289 1.6554454331226782 161 157 145
0.0380126506486922 0.0645043410048869 1.3233809566952532 67 57 55
0.3453677442087735 -0.1692925679829378 1.6326714889870007 177 170 160
-0.0826697985840324 0.1130472152153260 1.2254766450275898 187 181 167
0.2262968707763117 0.0139433424175793 1.3045372245257045 116 110 88
-0.0951855982748021 0.0649706782144222 1.3445917430960397 192 184 161
-0.2455387093414615 0.1157497050952846 1.2646798844077707 147 131 108
0.1496573697544809 -0.1759883185362601 1.6953230482239687 191 192 178
-0.1026762408143356 -0.1872254906599848 1.7789100379968465 147 143 131
-0.0466546121736054 0.1131338676815573 1.2152942369841389 174 172 151
0.1650674425980066 -0.1745327670841369 1.6876011820640218 179 169 168
0.2536067912558227 -0.1702432340236153 1.6551169664251235 169 162 146
-0.1649833724542261 0.0124063185129159 1.4842262910049255 52 79 100
-0.0644555456299250 -0.1853473582028318 1.7722037476582277 176 171 165
-0.0446840962231205 0.0131963529909133 1.4474532238956646 134 142 144
0.1583108451269149 -0.1739713394206457 1.6892702858304909 171 164 145
0.1485758425139068 0.0663747672300942 1.2964010933200933 92 86 98
0.0174017432911003 -0.1808186030052088 1.7415352346165986 131 129 130
-0.0249537788502142 0.1131381634390033 1.2097647571067605 151 144 138
-0.2475837838160773 0.0655417837658501 1.3593813311256799 168 173 143
-0.1098646307501595 0.0661883418031785 1.3428327194395879 133 125 112
-0.1673929482466384 0.0656999963530956 1.3387282585196787 152 139 131
-0.2562514610641654 0.1166726507812733 1.2664601469088823 158 141 133
-0.1197085775926490 0.0662231069478146 1.3408516705982232 119 110 93
0.1143483672932429 0.0673319964389787 1.3050627199522475 81 77 102
-0.2370713682946936 0.1163182983168109 1.2615608860714274 149 141 128
0.1722833338955396 0.1106932042610599 1.1559165748976246 165 165 155
-0.2424626074420392 0.1165860699910198 1.2624652483336838 152 142 133
-0.0612901283140721 0.0138612079695660 1.4509793171505778 165 171 171
-0.0985110791750328 0.1146056590931894 1.2275858566030531 191 186 180
-0.0938061534383269 -0.1847434409712857 1.7790457650606639 194 184 175
0.2063188140743061 0.1108518067952140 1.1498380592959068 173 175 153
0.2170507011905152 0.1107568120840219 1.1467015746108704 152 147 141
0.1804345618129654 0.0670180667178663 1.2522573631759322 185 175 163
-0.0018804442155153 0.0692600974166395 1.3342056355198160 89 75 74
-0.0549018007676226 -0.1805662148006073 1.7606275373573792 132 124 122
0.1745033497376810 0.0673093038639041 1.2587513726047324 223 221 196
-0.1149255789914903 0.1150013189999186 1.2320537462212025 188 190 185
0.0935873164661639 0.0691295025597976 1.3073844666689232 147 157 159
0.0639159164833935 0.1124538469152938 1.1854451545540126 160 153 137
-0.0783825062952148 0.0146649118900780 1.4559153984253475 127 136 151
0.1035913631918276 -0.1717613535173440 1.7018361570129399 166 165 147
0.0089399348903497 0.1132461009073608 1.1985359086166916 158 145 139
0.0324594936007164 0.0700077093334265 1.3235751244065324 74 84 93
-0.0443793886114294 0.1143630104128489 1.2124682710242283 188 187 166
-0.1672312681009856 0.0685383351675852 1.3332429221721962 181 161 150
-0.2262148658510854 0.1169940707295137 1.2576219791432113 146 141 137
-0.0857577871882721 -0.1787648131975932 1.7648065943485363 130 124 128
-0.1502987261990546 0.0687576767909148 1.3278725837834970 233 222 190
-0.0993017371905315 -0.1793137523872549 1.7724369151133201 122 121 116
0.2000397713175582 0.1116066799288568 1.1505203300062652 138 113 117
0.2937377229265172 -0.1608309111423857 1.6300186747810335 143 136 126
0.1505701017225362 0.0701453044189784 1.2894731488190443 88 76 90
0.3442341015907623 -0.1587799089813719 1.6175877067383324 97 93 92
-0.3205085273393883 0.0135975065922308 1.4775886337996591 185 187 173
-0.0484991652388329 0.1151132389913163 1.2120354809205873 174 171 156
-0.3203710086949015 0.0136675483287851 1.4776157935951912 185 188 177
0.1850023740384119 0.0681163177457514 1.2409765300932794 138 130 141
0.2575935904449704 -0.1604874056488707 1.6369655463889301 165 154 148
-0.0424148380826612 0.1152177100018771 1.2095630913885826 146 141 135
-0.0575954119102116 0.0717187989088327 1.3468819596463562 168 163 143
-0.2887587478505074 0.0702799351925337 1.3636150144766757 179 173 157
-0.1434076839959861 0.0702355775344488 1.3304488385060018 85 76 67
0.0237694007470333 0.0714767434030279 1.3239117570553982 106 117 121
0.1388317339038078 0.0711862214183771 1.2904036256115599 118 127 122
0.0722070761877952 0.1138749445207277 1.1792576684481617 185 181 169
0.0585142073232629 -0.1685484103129200 1.7082229227173247 183 176 160
0.1612680556036429 0.1128803045563670 1.1568720092439178 180 174 162
0.2217843866120573 0.0189788342465596 1.3153360480457372 143 136 126
-0.3090680479225973 0.0710497271385693 1.3685574273760051 123 114 105
-0.0204731924706571 -0.1706984150601169 1.7321144887215378 131 127 118
0.2242252316633485 0.0191654957131163 1.2967671501665339 126 105 110
-0.1049297948229289 0.1167804590396946 1.2250386645513447 182 176 162
0.1981550052504590 0.1128180548240275 1.1478647033145049 182 169 161
0.0404406021917357 -0.1674313196296673 1.7086619938133407 170 161 144
-0.0245307395129037 0.1158868472512921 1.2046321527679518 181 175 149
0.0096721123944879 -0.1682367574027608 1.7193289941455494 178 166 152
-0.1488769544249834 0.0179254781007178 1.4688821706025426 59 71 83
0.2273856522996025 0.1132007347364007 1.1417678966387033 95 83 87
-0.0608107907677841 0.0730924311452816 1.3450379168965647 77 86 85
0.0854953849160742 -0.1634836389269960 1.6912045626363883 135 134 116
-0.1388404422386236 0.0717792972881715 1.3321504493206002 118 108 98
-0.0058869211957772 -0.1666234270088153 1.7195204379393672 171 158 149
0.0024187095897532 0.1160114763240685 1.1961377665399262 164 155 146
-0.1390485403510796 -0.1722183130801150 1.7620476453670517 110 104 104
0.1085395008814072 -0.1613874902707893 1.6791124318702988 190 168 154
0.0597891073468171 0.0729203057861573 1.3045977941531168 144 149 145
-0.1790912354725979 0.1190341621488495 1.2415188059722884 155 142 133
-0.1598042539646233 0.0185477995092530 1.4716463060499057 53 61 82
0.0462266972751014 0.1156718772675049 1.1848090280730876 151 147 135
0.1741109426408063 0.0713473042355220 1.2499768234852935 209 213 190
0.1589521887039246 0.1141339969415784 1.1551901646628067 165 160 157
-0.1045329922242511 0.1180161144682263 1.2231414651018784 156 157 141
-0.2471677850181106 0.0725270200284670 1.3475056467589930 163 146 139
0.3388485803066392 -0.1503264488879095 1.6007179100443707 122 118 109
0.2225026478924073 0.0207138107613807 1.2934387012454549 167 145 124
0.2050315514649292 0.0698841389333975 1.2055353324522313 159 126 95
0.2050188466473943 0.0698702998992595 1.2054592027454374 149 127 80
-0.1278675412122814 0.0739622142449207 1.3359256553270877 136 124 112
-0.1491218771710548 0.1191161055750102 1.2333588124794268 151 138 119
-0.2907902813176356 0.0176885963957501 1.4626683780347209 171 162 153
-0.0414429434086916 0.0749452895233494 1.3378787380058335 129 132 137
0.0238917382485696 0.1165625862445011 1.1892431297068369 165 165 153
-0.1471909953307283 0.0199070829091349 1.4661127061051611 175 184 189
0.3138230685795720 -0.1499789498524957 1.6059711046092962 140 125 120
0.0345615298435541 -0.1617310313432824 1.7007697418434542 195 188 162
-0.2766060977858358 0.0190386090243262 1.4481773126360569 174 167 149
0.1874046846535092 0.0222998098339060 1.3194559179524730 236 230 214
-0.3285303842992680 0.0192220729351064 1.4688086561255225 173 169 142
-0.0205735484400990 0.1182002205954622 1.1986600665916307 186 177 170
-0.2743974841289314 0.1222777138964401 1.2620433977887255 170 160 133
0.2487195974571657 -0.1493596401703147 1.6198054718468855 153 144 137
0.2742615131613273 0.0240015616695942 1.2948307354652056 192 179 162
0.2852820571340577 -0.1483977791723265 1.6068588169657814 171 169 144
0.0171727983480554 0.1177184887904970 1.1880001201669108 179 163 147
0.0036990065200095 -0.1592224978805611 1.7028714013624240 136 127 118
-0.0992009052170747 0.1199400654461188 1.2177940059095504 164 157 149
0.2819109577879580 -0.1475985376284103 1.6079786618636780 157 152 148
0.0676474905448259 0.1172833364187669 1.1746089209422366 178 174 163
0.1364492339049344 0.1167076511129987 1.1574418097529349 90 82 80
0.1597690966887919 0.1167771954092123 1.1523228742778500 152 146 150
0.1931899231406609 0.1161095150958454 1.1413726505960757 163 150 142
0.2223167053811773 0.0258530332053963 1.2831628895613660 104 98 100
-0.0002295686715619 -0.1559288090626576 1.6958617671298870 167 161 139
0.2142472106109221 0.1164649722725893 1.1369277802003199 173 170 153
0.2263873316743628 -0.1456442962090213 1.6176135943182983 168 170 133
-0.0983979793975482 0.1209888874415431 1.2159400258162711 185 176 159
-0.0424736109169536 0.1200208924265210 1.2010413601599903 193 183 171
-0.1701788309215578 -0.1613391624976271 1.7477542595657465 102 92 91
-0.1512049579962109 0.1218676963703836 1.2291288987036428 171 163 161
0.1602325576340447 0.0262488668593576 1.3196981765091498 164 148 132
0.2080579726820808 0.0267926651755599 1.3056128410126171 200 192 173
0.2039254282109588 0.1171350279886073 1.1388821441353705 171 154 144
-0.0735986117727996 -0.1572472568878560 1.7212394718077291 156 154 139
0.0281540633054626 -0.1524669115278142 1.6845280572289991 203 186 178
0.0034632407778599 0.1197755126912337 1.1885037157404328 174 181 150
0.1770797063896449 0.1175716863698733 1.1443371661523973 184 171 165
-0.1479525989559816 -0.1599164453375249 1.7481995666929593 127 117 118
-0.2674918266903856 0.0253163288013845 1.4377054364504067 172 162 152
0.0022314303036123 -0.1529680921704090 1.6933386406161888 182 174 153
0.0036679586727232 0.0272668966034725 1.3632921284117456 201 199 187
0.1647274312248766 -0.1436949673716126 1.6312102648325535 159 153 141
-0.0151774880106395 0.1210210700621494 1.1910074316548331 172 151 122
0.0692933780603857 0.1198504314032921 1.1692627912104752 180 173 157
0.2088259877727472 0.1181389474738051 1.1347294984917298 179 173 161
-0.1756958068375463 -0.1559810845122324 1.7422438550441188 133 132 128
-0.0623720615541530 -0.1509309478271104 1.7031061545156072 173 169 170
0.1456315481696759 0.1190315206555381 1.1492992799317046 174 169 163
0.1679093467034690 -0.1418724397309298 1.6273505869412659 179 182 163
0.1969772626863125 0.1183231309804697 1.1373834646940286 174 169 166
-0.1143123555842945 0.0274357272149693 1.3958513849498750 185 171 162
-0.2569343261566770 0.1256440252108565 1.2505128457877168 142 133 124
0.1596353101288698 0.1190529972628441 1.1460322380126426 153 149 150
-0.1472519684132000 -0.1539562038917746 1.7356773829869594 211 213 200
-0.1459637836459710 0.1239411969123282 1.2233680969139138 189 185 174
0.0952095641598451 0.0291322448550193 1.3327361596674392 188 191 182
-0.1067170213616427 -0.1473398818130594 1.7118007218741305 145 137 124
0.1588672200042715 -0.1364623185845088 1.6201684809661099 153 139 126
-0.1789465292848798 -0.1501744384696023 1.7381898386822761 193 188 184
-0.1387075067446152 0.1246011712346781 1.2185618422785993 167 166 148
0.0193466235048533 0.1222174726798261 1.1795735096514626 192 188 176
0.1025182218477429 0.1211490640121589 1.1574414352353026 179 182 171
0.1173664169606547 0.0310025479407998 1.3239938205128063 180 178 163
-0.3067911553954975 0.0293865180620608 1.4452639839189534 156 141 136
-0.2514233162467974 0.1274284266630054 1.2446698679590484 170 174 141
-0.1110595387298692 0.1256388290891575 1.2104685929809438 181 180 152
0.1917816006161842 0.1209040005980566 1.1318312647452264 171 168 161
-0.1558273642620734 0.1264230603236269 1.2217023453356655 118 119 103
-0.1471815642742612 0.1262117060748191 1.2194705810523687 142 125 118
-0.0252763225849336 0.0316444431645715 1.3631584263172976 158 155 138
0.2426103666279600 -0.1304716875406482 1.5858288053281735 141 131 119
0.0916825635782441 0.0325463941436940 1.3274253282787269 193 192 172
-0.1813144386888553 0.1270572335767957 1.2269630155330502 140 131 122
0.2679499269194210 0.0332659095648542 1.2797701336924612 178 176 155
-0.1289380530257521 -0.1440936995108548 1.7110148634912967 115 103 105
-0.2396359033391812 0.1284040938251300 1.2390627818389197 166 147 141
0.0718533453195112 -0.1360270264332246 1.6421608419194904 161 152 153
0.2165907711707604 -0.1304261747330646 1.5940425839804495 148 138 126
0.2620906990281650 -0.1282367931219502 1.5766591466879158 145 138 130
0.1962693557888408 0.0334328992133875 1.2953025029812311 180 169 167
0.2175340239775347 -0.1288364021862645 1.5912712407711924 178 171 153
-0.1739753582007794 0.0321563120970423 1.3799748303104844 190 178 164
-0.1308458541678199 -0.1418875482889011 1.7070090691680126 126 117 112
0.0630103643127350 0.1243083449940600 1.1633543562752815 173 167 155
0.1491410065933693 0.1230811447077009 1.1422526356488703 150 139 135
-0.2447153533048925 0.0328057916395772 1.4164583447913950 122 124 110
-0.0137468998315394 0.0339491048751087 1.3564723457805712 176 172 163
0.2509822418255486 -0.1258218599118480 1.5761290951493909 184 167 141
-0.1372889379395098 -0.1397017856034360 1.7065588521283150 119 108 106
-0.1841846750564734 0.1287448134354704 1.2252003435016887 187 179 168
-0.0116780078164415 -0.1347404838565216 1.6636385014242143 216 209 191
0.0675840124602721 0.0350755346589454 1.3308076834670575 184 169 162
0.1532941139057097 -0.1272874425831412 1.6054347172062782 174 168 152
0.0676015466339542 0.0351006054192560 1.3307912150534167 184 169 162
0.3080408521877284 -0.1210824015723979 1.5498844248438801 184 177 151
0.0159788777788750 0.1256742524906011 1.1731013068728311 177 175 154
-0.1487634790164866 -0.1380543391129659 1.7054266937500806 128 118 117
-0.2724575154547592 0.0344785114909068 1.4272615448421193 174 168 156
-0.1615690645698674 0.0342617150859510 1.3770062704247326 163 154 149
-0.1408803219501759 0.1288821382597364 1.2126166868436392 154 150 138
-0.1298348393141655 0.1286626356681528 1.2102717456422896 177 174 157
0.2359149311972247 -0.1219092525642143 1.5723422280965855 153 145 132
-0.2475345368525259 0.0351526543444882 1.4176084835044045 175 171 159
-0.0853498164691346 0.1282100460194039 1.1991439189579209 177 171 145
0.0454427686021587 0.1260315512765918 1.1651600398990576 157 142 135
0.2709529791553125 -0.1199931937412599 1.5594282857489692 157 155 134
-0.1179037123622338 0.0357584698751090 1.3807178257525432 156 147 142
-0.2090385610005958 -0.1382685621028424 1.7240218473443798 208 203 199
-0.2606080275136152 0.1314307367261271 1.2396000932963642 147 139 120
-0.1266443325293819 -0.1345928453885889 1.6933578193483096 138 134 131
0.2117711490488433 0.0371347581172479 1.2849773982924138 190 174 159
-0.2325892356107388 0.1311496487267269 1.2327635055957500 101 92 87
-0.0624442594307520 0.1280866144338881 1.1900776266610580 167 163 154
0.2715405008265495 -0.1186455484242305 1.5563458335783071 127 106 105
0.2246647092700435 -0.1197202113622681 1.5717770541095877 162 162 134
0.2329273429303711 -0.1197140551715148 1.5706956923865354 164 160 135
-0.2312111305479021 0.1312296445067959 1.2331028723319817 199 194 175
-0.2373737607469855 -0.1358773031008644 1.7163227707381947 82 76 76
0.2455546176607137 -0.1189208601923368 1.5646143619284467 174 160 151
-0.0921066247135512 0.1289550755635305 1.1985538780482707 186 181 159
0.0272212510052851 0.1270195654950441 1.1685742308097746 193 187 163
0.2513728714203756 -0.1182013587386272 1.5619337363660371 88 82 82
0.1436998395940094 -0.1217702231892567 1.5983737845635648 160 155 133
0.0461767437087586 0.1267394739898356 1.1628591013245604 171 161 149
0.1487863257528547 -0.1211755997054338 1.5961257593375975 157 143 134
-0.2645620131455255 0.1326914754082642 1.2392571265417811 195 194 174
-0.2393268471416021 -0.1345624461119726 1.7158682866170760 134 124 125
-0.0088434742708151 -0.1264435634632659 1.6464779973650741 177 168 161
0.0732000298552296 0.1269136235287231 1.1548854163318736 152 142 132
0.1060976538881114 0.1262529269617897 1.1454852512548366 156 150 150
0.1085957160193467 0.0379037070341453 1.3135296848657301 187 181 157
0.1109412199702752 0.1259722504625615 1.1442238363000365 166 162 161
0.1568753347846022 0.0378610195727345 1.2993709563296338 155 143 129
-0.0261333709842365 0.1285356904534097 1.1790478073912103 161 157 148
0.2763484603828870 -0.1139944192924978 1.5247856631297199 116 96 108
0.1278529171086769 0.1263521547778784 1.1410040813313791 232 224 203
-0.1956274330051001 0.1320406998261155 1.2221738257852945 163 156 140
-0.0717585068278676 -0.1280792486550835 1.6654976694813097 165 166 150
0.1226607723668135 0.0383561410685421 1.3086416543041666 177 175 162
0.2099040997530268 0.1253740061037678 1.1220071854282130 145 134 138
0.3142956466265835 -0.1139437301421724 1.5380411816506534 211 196 177
0.2099005102714512 0.1254307905126019 1.1221006207218840 145 134 138
-0.2410524229485182 0.1328763846450359 1.2323551272195457 125 128 109
0.0146090337287080 0.1284425563004788 1.1688819182550267 187 180 162
-0.2140680607051662 0.0373878317448411 1.3959464518729978 142 140 128
0.0062437418521826 0.1286730554085500 1.1708935874905904 186 175 171
-0.0078874798882763 -0.1244217563228269 1.6426579316872694 83 76 60
-0.2101236525285532 -0.1322114552249456 1.7112953328627927 108 111 100
-0.1501673946233495 0.0376954275678879 1.3756510235136770 61 55 57
-0.0951859208994426 0.1307284517743892 1.1956315770487109 180 175 155
-0.3177491884355330 0.0382400746790166 1.4332392000832317 170 172 151
0.2704249867410070 -0.1136238497606955 1.5478156623154875 130 127 112
0.2651769512337362 -0.1138011455536147 1.5493123170459544 203 195 174
-0.1731028862011343 0.1321746518185409 1.2149872542756412 186 184 169
-0.0383619702565968 0.1298087233811479 1.1812656317786008 158 154 143
0.0485311138206867 0.1283118268274469 1.1593785323133909 172 172 148
0.2239781401500980 -0.1144142397158575 1.5624824184913377 153 142 114
-0.2016568145496548 -0.1301464168651962 1.7067051152486963 107 107 109
0.0951826410371700 0.1276481170605026 1.1472019513616007 147 146 128
-0.1822029672602063 -0.1293081295397063 1.6989990188395487 88 82 82
0.0743099699001790 0.0400149331041779 1.3186232699219285 153 146 130
0.0777162444159458 0.1280203602208401 1.1515274066028078 186 186 158
-0.2694960916100608 0.0393318909498782 1.4168264071675871 158 158 132
-0.2275272818490605 -0.1299570513409159 1.7139851616040886 190 189 184
-0.0657832972809982 -0.1236369055330864 1.6575153557501934 204 191 172
0.0199420859999911 0.0402237872568565 1.3344310628761795 215 215 191
-0.0694655046467689 -0.1231276918540354 1.6589901491139702 186 172 159
-0.1085700116019854 -0.1237294198243846 1.6677971305913166 185 183 168
-0.0787234460119876 -0.1223771501718690 1.6567254532355025 167 165 153
-0.1289299927391167 -0.1239538854179837 1.6732499155741369 188 189 184
-0.1212917388235307 -0.1233178041944632 1.6704074784279139 167 163 162
-0.0037024271087830 -0.1186097822112157 1.6313793278138036 161 143 141
-0.1246790036971139 -0.1219713519136329 1.6687354472866940 167 165 153
0.2626733399853652 -0.1084089116567684 1.5395845650763078 156 146 145
-0.0855571544854227 0.0404749320414947 1.3636970074391876 209 193 177
-0.1728205224427009 0.1338083101535902 1.2130851390250483 153 150 141
0.1535735154419022 -0.1115885458117655 1.5776592575606325 172 156 141
0.1845877662154488 0.0413206234673669 1.2885269611438395 168 154 145
-0.1901246488150836 -0.1235416146417405 1.6913727587669443 112 109 104
-0.1992244657700019 0.1345836854944219 1.2168926730441842 175 173 160
0.2568224363519371 -0.1070494111180087 1.5391639567505175 167 154 146
-0.1800978608544251 0.1345021881149573 1.2128153644432802 170 162 139
0.1027641445656753 0.1293208481220676 1.1415634354434752 156 149 141
0.1414218050945153 0.1288149638370424 1.1320850838164982 204 195 178
0.1192549706496796 0.0417333710491720 1.3044232730184633 157 153 142
-0.3188863001223576 0.0410469943172540 1.4293641891476061 181 175 163
0.3306954052728061 -0.1044881287529002 1.5177349352991909 156 134 121
-0.2345727227404119 -0.1237910206319217 1.7044504799800597 117 116 111
0.2007662533250285 -0.1082046036755819 1.5574868307607959 173 169 158
0.2709827974897916 -0.1044601357310647 1.5140094233916699 116 96 105
0.2735404194105856 -0.1035423437464022 1.5037098253214463 150 124 107
-0.3001561876059761 0.0415156250677780 1.4212772221470722 164 160 149
-0.0666759687438025 -0.1166598168655839 1.6435798939475432 154 147 131
0.2370363639337663 -0.1063285509834216 1.5441127533457648 181 175 151
0.0472641664730061 0.1309003277669403 1.1553431907667859 180 172 151
0.3245445363471542 -0.1034066294121935 1.5174740180913908 173 163 151
-0.2439523487222194 -0.1227279901133915 1.7056221337151327 206 203 194
0.2195051722525200 -0.1061470536576967 1.5478470343288344 161 160 142
-0.0436874320661839 0.1329340023294860 1.1770602665440193 188 182 170
-0.0507115661577140 0.0422084348588323 1.3499669525482676 226 213 194
0.0393933276740836 0.1317987100303712 1.1565392624314259 161 157 146
-0.1318635144876423 0.0424360592388250 1.3716608493905946 123 114 109
-0.2042262129062271 0.1362805970345170 1.2165499013743477 145 130 123
-0.0626984821138370 0.1335898789873987 1.1811894789786994 198 202 188
-0.1252139666075908 0.1348299372699261 1.1956051655668669 175 167 156
-0.0997529793218631 0.1346984812742416 1.1899090140314339 169 169 141
-0.0025514648909340 0.0431442087720632 1.3357337571146592 196 193 178
-0.0461247474198712 0.1333539712472893 1.1760384592690196 180 176 149
-0.2050975633924755 0.0434132334086798 1.3899670966718274 124 115 118
0.1373626675876481 0.0436987115550024 1.2996008739771538 156 148 137
-0.0041218035646204 -0.1110324109556632 1.6172814900026120 151 143 132
-0.0894924526144335 0.1347678256667925 1.1855634554663701 156 146 144
-0.0847150711607715 -0.1131572991587972 1.6417955532128667 170 161 152
0.0403336577440907 0.0441854900609183 1.3224397869305482 158 150 137
-0.1292764432037983 0.1360553410219415 1.1973744742970263 144 145 127
-0.0605248339540544 0.1342814935279499 1.1786040830842233 170 166 157
-0.2541075513565632 -0.1189662149672919 1.7021210093286081 135 121 95
-0.2486560307427585 -0.1184512300795944 1.6990611682113375 116 101 106
-0.1574662146939469 0.1365021499620102 1.2026240902020788 144 137 129
-0.0917079580835067 0.1351977390693019 1.1861238329637938 152 146 130
0.1828684343465338 0.0451278806191809 1.2887728928398092 180 172 149
0.2412913966309219 0.0449416283459798 1.2641121537517270 171 161 149
0.2038627782292047 0.1304268637312084 1.1136080259049406 162 166 143
0.0122299942495436 -0.1083421838956692 1.6091387471438712 197 191 169
-0.1444827039209269 0.1368238481612009 1.1987971889517972 142 136 120
0.1999430985907092 -0.1027888560133440 1.5514443708637893 159 158 138
0.2624607360470133 -0.1002139261924881 1.5254600056282679 158 151 145
-0.1354802637461170 0.0451787091196913 1.3703333302233367 120 116 115
0.2435242291625865 -0.1003541811541486 1.5400145461021502 142 143 129
-0.1632536196079793 0.0455071822061231 1.3768009564849306 154 145 130
0.1372107871682487 -0.1027255086053329 1.5661313958135630 140 139 134
-0.2093931222145851 -0.1138986109184179 1.6780946100393608 191 191 193
-0.0260642656637163 -0.1077300248270445 1.6186285145834372 151 131 133
0.0899722180528608 0.1330863357418763 1.1374979451538250 175 175 149
-0.1994409795469538 -0.1133433746129701 1.6750589251508579 168 166 151
0.1680649372959475 0.0468561734471493 1.2913681596481008 180 174 142
-0.1077878357121416 -0.1099159423595874 1.6418603402273269 163 155 134
0.0984856772823507 -0.1032548872604124 1.5759312258671145 162 164 143
0.2703526507369675 0.0468125319671400 1.2529371379085434 197 186 168
0.0167124373485760 -0.1051954323407753 1.6008725780147519 162 150 124
0.2308343738295049 -0.0994082546018358 1.5434209801464638 177 169 156
-0.1209426785760989 0.0463015984553562 1.3625277337293711 157 145 131
0.1788081577802230 0.0471230334908832 1.2890312080317061 168 148 149
-0.0421716242459684 -0.1067656901083965 1.6205184388244442 192 185 169
-0.1103398603637951 -0.1085520773858947 1.6406115841894682 170 165 162
-0.1240103666158723 0.0470598823888895 1.3619252717494985 165 144 127
-0.2022921279052008 -0.1114353930876136 1.6731302338732241 128 122 124
-0.0638573402752846 0.0479465726752951 1.3459061112852138 204 185 168
-0.1601752813814634 -0.1094754812081034 1.6561135368624142 137 121 122
-0.1067721991569346 -0.1076988770509284 1.6374018106081023 127 123 111
0.1017707308183036 0.0488067561771643 1.3066788086694667 164 154 127
-0.0218190609321067 -0.1049523973959705 1.6118060436743151 205 186 180
-0.2241813443289657 0.0481440407751510 1.3851874581742691 138 129 130
-0.1050355147095968 0.1386556911668775 1.1840620348524993 181 176 154
0.0879650456791649 -0.1012750072075685 1.5771847490355699 153 142 138
0.2463014059263404 -0.0960644049275583 1.5272471950725321 224 213 195
0.1856142907963163 0.0495034665880562 1.2832859156479020 155 145 136
-0.0482581109277491 0.1375490455520025 1.1688523475562771 171 166 136
-0.2694928133328446 -0.1123909791663858 1.6938167422644512 162 160 139
-0.2401219490023119 0.0489471045456332 1.3893918732914385 178 169 154
0.0072830169000198 -0.1030112211001774 1.5996326816311008 208 202 188
-0.2616376219652347 -0.1113067979261421 1.6900037145082092 101 108 74
0.0239077171927483 -0.1017248266294013 1.5945540890715844 179 165 152
-0.1610533086188570 0.1401780329212638 1.1973649811770735 141 133 120
0.0783411423056218 0.0503430301612286 1.3114587549157104 157 150 142
-0.1369986717504139 0.1396626097855823 1.1902847987243534 149 149 141
-0.2249943325503249 -0.1092094738466503 1.6750566034463201 181 181 179
0.0773307881345201 0.1360569215191380 1.1361893851478171 180 181 163
0.1627851589183855 -0.0973089054745439 1.5587359635502553 166 157 140
-0.2709559040549344 0.1430849365026364 1.2219657017941583 170 171 163
-0.1625683513465502 -0.1068254898114926 1.6533236530286506 197 188 171
0.0971235961731249 0.0505764687395710 1.3069724951830513 173 166 148
-0.1713159242935966 0.1410360038899925 1.1976604132461457 139 136 127
-0.2213162273358701 -0.1085314081771373 1.6716609053526963 151 159 136
-0.0240132233961747 0.1380224424362229 1.1611436334391276 209 208 188
0.0127457136065718 0.1374757532508329 1.1528288473696646 156 153 144
-0.1743320773198204 0.0513864599606922 1.3691159028531852 169 163 147
0.0151466512483912 -0.0997847877542162 1.5938400123209298 131 130 112
-0.1046381705385899 0.0512830647421716 1.3475870602786031 227 210 184
-0.2320552384108358 -0.1077313169622104 1.6744967004991200 183 185 180
-0.1437335536818524 0.1407628409592264 1.1906926314641926 192 195 176
-0.2780832626637407 -0.1088746124420844 1.6907485460374947 105 101 98
0.1293946810816741 0.0521544406993394 1.2996840919749484 185 174 152
0.3018903940303448 -0.0902201511951636 1.4978781680341373 168 150 140
-0.2538496179833611 0.0516098220558592 1.3887776840202977 164 164 154
0.0169713871502685 -0.0991009185094556 1.5931198844064227 187 179 160
0.0070168988915012 0.0521188419119324 1.3281393845990297 159 147 135
-0.2507547119082049 0.0519428624443922 1.3866982857585515 137 132 126
-0.1540904621781426 0.0520736789865352 1.3596447004979382 153 151 139
-0.0369236672926989 0.1392624875333205 1.1633100345435419 162 152 142
0.0277301048245877 0.1378599835193869 1.1461515488591620 188 184 172
0.0236666851478667 -0.0978033611496042 1.5911858370715952 165 166 152
-0.0662431105872096 -0.1000482225653036 1.6160193382993495 129 111 109
0.1715630414314472 0.1358354509694582 1.1144858052845827 197 184 167
-0.0392334137503206 0.1392972389205863 1.1633167951980459 155 144 140
0.0049844241833770 0.1384519749723080 1.1521441371304368 165 160 156
-0.0109262693101439 0.0527670017129903 1.3324884545801550 176 175 155
0.0491955190312161 0.0532505522978798 1.3183094676251907 161 155 129
0.0402242373044860 -0.0966682636774695 1.5874893558142087 177 174 155
-0.0321986369438355 -0.0981771899289525 1.6019601056954533 232 218 205
0.2043394405090186 0.1354515770488052 1.1045388480974321 145 142 127
-0.2935668991079496 0.0528821134882329 1.3983409237570650 170 166 154
-0.2972773981985330 -0.1056087255986365 1.6820764871027332 121 114 104
-0.0704520503026354 -0.0988536870704474 1.6144859437965395 143 141 126
-0.2244614798066344 0.0530322937144797 1.3768770183084977 170 172 158
0.0720510760246450 0.1379945737669385 1.1332718757498761 182 176 176
-0.2263745470492773 0.0532985429372637 1.3767140437814329 143 132 128
0.0469881003422158 0.1389085825093271 1.1422022751139493 163 163 155
0.0078104021146609 -0.0954799609054382 1.5951588143007920 127 127 117
0.2667732306542557 -0.0850810948263111 1.4709199390727243 182 167 134
0.3164751011949781 -0.0858104214412564 1.4867056194695658 166 152 143
-0.1305300198410097 -0.0985757552911199 1.6279230730061640 127 120 104
-0.0683881439798224 0.0549721733095716 1.3454457806173368 186 170 154
-0.3115717690425389 -0.1030566958508461 1.6781553247310552 146 128 124
-0.0541749168137961 -0.0957644865822500 1.6039790896234212 230 213 193
0.1129669598144907 0.0555702969134687 1.3027376568089604 169 166 149
-0.0842446800890908 -0.0963029682964526 1.6121522173343108 199 189 187
0.1193020049971458 0.0555724013687802 1.3009806428313775 165 157 144
0.0264835271795693 0.1397974690190705 1.1443940388787193 158 149 144
-0.0322804241038316 -0.0943495654998971 1.6010086541558979 224 209 186
0.1210544682636422 0.1381568962190962 1.1200878334287312 167 161 163
0.2805256173448508 -0.0849631884042441 1.4717853271587469 52 57 53
-0.3188020146145205 -0.1016109801344316 1.6757825566290416 112 104 101
-0.0826062850846459 -0.0945643805362604 1.6096515032739380 175 157 155
-0.2365092787848945 0.0558709076591687 1.3735149783466301 148 152 127
0.1410220145837417 -0.0889227997217421 1.5620561054238153 154 142 128
-0.0893910489393408 -0.0942168385075346 1.6099127344901680 183 180 175
0.1963728959059068 -0.0877139951604728 1.5505270631642927 116 111 107
0.1135537565690710 0.1385852776502763 1.1210426326044509 167 157 147
-0.1009273153179534 -0.0941627444656211 1.6155785777344671 59 55 56
0.0732758810729670 0.0569064859766221 1.3127382942218551 182 169 153
-0.0745647519940799 0.1422182608756481 1.1665200482024909 152 147 153
0.1802629758241796 0.1378325275772387 1.1055823068522788 167 161 147
-0.2081311779558409 0.1457228434688390 1.2011931631733828 151 143 130
-0.1889588999870683 0.1453889449653000 1.1964556034718310 138 127 109
-0.0053914730827549 -0.0917948254991858 1.5972774617887044 236 216 181
-0.2535697555338379 0.0575125383277517 1.3779435992331286 140 135 129
-0.2534299262299721 0.0573285531806493 1.3775967413941339 134 130 127
0.2261417391973015 0.1376509066879634 1.0948270023073041 163 156 146
0.3206929064146176 -0.0806711627520888 1.4768006986105080 188 176 160
-0.1515272115254822 0.0575336361600975 1.3496119705154268 140 131 126
-0.2453582416964242 0.0580605688654684 1.3736520166731108 177 175 160
-0.1456261151979226 0.0578929117425277 1.3486449564364087 196 184 162
-0.0540195558257742 -0.0911679175032239 1.5991385906718247 231 224 198
0.0087031152793436 0.0590243725200479 1.3268757093694290 166 161 141
0.0964033238980080 0.0589736982161739 1.3067187223514878 80 65 58
0.2550905788155317 -0.0819720642886363 1.4937247873338391 141 123 119
0.0819317084632794 -0.0879733307255587 1.5759164064517772 174 164 137
0.1765728929352721 -0.0856696544402349 1.5555543364834761 122 117 97
-0.2922032994638155 -0.0970725230648325 1.6720542566120571 201 197 194
0.0623746432659188 0.0592161861849426 1.3141560179434322 139 135 126
-0.0110861792521896 -0.0892406044665560 1.5977039016711050 224 210 171
-0.0565618475902497 0.1436586196009219 1.1604465620390194 148 141 131
-0.1883349139809910 -0.0926341340569228 1.6334816704186403 121 120 116
0.1834531449474758 0.1395529629974617 1.1011267773602453 160 152 150
0.1381836359683223 -0.0849856951206773 1.5642122581325995 82 77 71
-0.0151522226288135 0.0599408221111997 1.3323802208444389 174 162 136
-0.2329777090973427 0.0600352444209394 1.3653184220557317 160 152 131
0.1836074149921877 0.0598399190158763 1.2627089557178732 164 139 143
-0.0742318552062585 0.0611732097146829 1.3444016066189055 231 206 186
-0.2987685369713274 0.0611458677170890 1.3849505244046150 180 181 167
0.0572193346002770 0.1422816289091658 1.1294440125897711 153 123 125
-0.1688383917262690 0.1471053111503283 1.1849321309220642 188 185 180
0.1489980249533166 0.0622313012999114 1.2984063790765090 117 108 109
-0.0752850427875894 0.1455408296724880 1.1608284051211539 161 153 130
-0.1044208360342818 0.1463599517115887 1.1688860209420151 157 148 151
-0.1002094386722654 0.1462180394003266 1.1675010038586755 176 168 155
-0.1682421308485587 0.1481520362579510 1.1840679012829181 143 140 131
-0.2647942805835078 0.1505701786353640 1.2057573708045013 171 167 158
-0.1695997236624979 0.1486552950474018 1.1836230610942458 188 185 176
-0.1193585663368334 0.0641413523032455 1.3414237319732236 206 196 184
0.2002835887020835 0.0627848298706732 1.2398733976530658 138 131 115
-0.2137770403493491 0.1500487583152774 1.1918709218471224 187 178 181
-0.1074363467503699 0.1479218135651053 1.1680391985512200 114 112 117
-0.0809784739942096 0.0657023947582430 1.3456119678504064 235 226 185
0.1572621848367469 0.0660373276977414 1.2948002914205436 90 87 96
-0.1041873004772452 0.1482424092747284 1.1667312035389521 151 152 146
0.1667330107076180 0.0648663353794588 1.2741105309780720 162 152 127
0.1981179814194537 0.0639221955918142 1.2383634156394279 125 124 103
0.0902451976192966 0.0663449246381711 1.3128104064795854 180 180 154
0.0956164476019180 0.0666628964346242 1.3117518742411669 150 143 137
0.0760793086604188 0.0669400026327743 1.3160381548589200 160 150 138
0.1283807958621856 0.0669705831507994 1.3023476133168739 71 75 76
-0.1228261802120668 0.1495675108405902 1.1694000361745771 181 170 138
-0.1052674123359842 0.0666206502991814 1.3424623959650048 213 206 180
-0.1496888092308970 0.0656696811419826 1.3308044331383628 223 199 175
-0.2239513248315790 0.1520822521908311 1.1916145224527759 144 126 126
-0.0952161025674829 0.1492083718777690 1.1609202349443033 151 142 125
0.1785833984643756 0.0659796347110560 1.2552656753309583 159 146 129
0.0396020115952167 0.0681639051172947 1.3244387058673401 149 141 118
-0.0259893094568138 0.0684326520655748 1.3380234650440062 128 121 103
0.2050169118428120 0.0655743289586495 1.2336595672749797 129 117 105
-0.0838864209131484 0.0684004826864627 1.3432046245745781 173 159 132
-0.2059287072921990 0.0690718855310300 1.3426756632488968 198 185 168
0.1551460948303953 0.0699912697997894 1.2884963017121462 129 143 144
-0.2408841802546404 0.0696476941595180 1.3507027821658684 178 172 148
-0.0948184108221485 0.0702802028496080 1.3416759230548427 223 203 176
-0.0208959846507137 0.0712768119519972 1.3364188167087132 100 100 98
-0.2739389013609587 0.0701409832909642 1.3596084131474475 150 144 96
0.2663878735290309 0.0683377791577177 1.2143347267877362 179 165 156
0.2298657505700505 0.0684277100832599 1.2226382625066980 180 169 147
0.1887087675437098 0.0698655544420318 1.2320975883737559 93 72 79
-0.2702085189352701 0.0737586173980900 1.3514349599636870 131 122 107
-0.1469280583599941 0.0740085272958265 1.3272347659007777 142 129 113
-0.2243346533605507 0.0755272397971886 1.3352914349540932 176 172 161
0.2010488638784433 0.0733693805974331 1.2197505383178897 156 139 121
-0.2065094907741556 0.0756952172547047 1.3294075997033119 159 149 140
0.1720435334168265 0.0760176665454281 1.2418017202223885 216 201 178
0.1553747925673304 0.0777999675098812 1.2740815820972269 47 64 84
0.0477261715555932 0.0784872707241375 1.3010944403119795 103 113 122
0.1856655213502139 0.0762427566674589 1.2212381046904908 102 91 97
-0.2847848237110826 0.0804598264380509 1.3433153383784235 122 116 92
0.1508385869665729 0.0806412382294967 1.2703221699350249 112 113 115
0.1320067779842540 0.0808245970140169 1.2749974556956221 155 155 157
-0.1505872231665337 0.0800979826824678 1.3059561582480672 214 208 174
0.1713227312682627 0.0792438663728427 1.2367262885078647 147 139 137
-0.0883319875434236 0.0827010124770357 1.3349855448900951 58 50 48
0.1866665018013011 0.0783195723449010 1.2151474224528067 166 145 128
-0.1579863053012848 0.0812915030329238 1.3063641861716166 213 209 182
-0.1515237073636989 0.0814350183562279 1.3043144391456485 185 163 150
-0.0973790723907542 0.0854866693562360 1.3323200756551858 54 64 89
-0.1104296201301848 0.0856205318473144 1.3358077542618167 63 73 83
0.1698264913569500 0.0830757448849234 1.2289750241884607 196 188 165
-0.2250473070239138 0.0848718705474726 1.3169300922269287 136 125 121
-0.0547278915372446 0.0872768646958001 1.3166433295251114 47 49 46
-0.1413588449442730 0.0851190971551846 1.2943398203539487 190 165 143
-0.2227185805130801 0.0861254000585276 1.3144094596609235 155 149 133
-0.0943899973753498 0.0890968458287207 1.3227363280355475 53 56 63
-0.0718102960273812 0.0911531766032805 1.3152219897441630 45 52 78
-0.1805753649171042 0.0889538558474796 1.2968858829823477 142 128 125
0.1824152711466762 0.0872793681606152 1.1989995667634339 199 193 181
0.1995486846680713 0.0871638060439533 1.1702026105965166 157 134 120
0.1392520826882606 0.0897365439177037 1.2075072163928362 174 161 127
0.2347146403977375 0.0890233959697223 1.1837280718287924 200 175 171
-0.2567401077414742 0.0934042531457112 1.3099824499558823 121 117 116
-0.1708605319929278 0.0930895536526792 1.2883219647362394 193 177 162
0.1629785505917891 0.0905019708981764 1.1988043513612128 194 182 160
0.1115722488973119 0.0909381582521966 1.2112753636341076 182 179 160
-0.2332911262560805 0.0956649105004291 1.3005174960574890 139 133 119
-0.0310579401430186 0.0931255472898997 1.2492195057011517 152 145 137
0.1319912691445569 0.0918537040632128 1.2048021131401319 179 166 147
0.1860545167071198 0.0920851125467035 1.1893017599193729 170 164 148
-0.2377816414325370 0.0962224543809651 1.2985552920017780 148 132 119
-0.1308952656469950 0.0954710480283720 1.2725077938740190 186 187 171
0.1341553590133196 0.0931089497161226 1.2003760716466605 176 162 151
0.1142263744197591 0.0935373049095651 1.2060998038189354 148 144 135
-0.1428685706658607 0.0963417989903649 1.2746885301754816 165 143 120
-0.0394518385136537 0.0957167767308124 1.2465339713469983 200 192 189
0.1794299995801564 0.0936730502224151 1.1883234692813487 166 158 139
0.1607405885054733 0.0940172305504653 1.1936315313229826 200 178 154
0.2364559125745405 0.0936648208056736 1.1741456385313591 195 178 168
0.0724281785976103 0.0954743135204865 1.2157553987107377 176 176 166
-0.2437594058264570 0.0994789756976760 1.2974070612862056 133 124 117
-0.0939143584312436 0.0975288687621548 1.2574765111007287 225 212 193
0.2014315948928456 0.0942443229476831 1.1696968982397484 83 75 56
-0.2351016675956152 0.0996979499892456 1.2924989403457323 175 169 155
0.1245788291803151 0.0964652801166422 1.1989125674972509 160 156 153
-0.1740046676889945 0.0993313358695926 1.2772452358911721 191 189 168
-0.2856246053321235 0.1006749027702258 1.3039262115394161 123 123 123
-0.1040790196091725 0.0998921200938384 1.2567682858491089 227 213 184
-0.0408968997206073 0.0998240366725132 1.2388450659703143 158 161 144
-0.0908430593450326 0.1008742835601315 1.2513785786293872 221 201 177
0.1826603806564029 0.0984733868496703 1.1794809234097483 152 136 123
0.2158780671283629 0.0983766426306302 1.1706198145405791 143 137 103
0.1306955772672084 0.0995877527514184 1.1905237328296114 190 188 165
-0.0604222853068244 0.1018055712535646 1.2404206064555199 169 157 145
0.0258306608418572 0.1012777783057757 1.2176756016348131 200 188 162
-0.1004605631419477 0.1026457296554090 1.2506277181715657 189 183 171
-0.1872512347781876 0.1040052865989866 1.2727530502344455 162 152 140
-0.1324699954926203 0.1036898141384093 1.2575888501979642 159 157 132
0.0008922449934675 0.1023008412841954 1.2221273601899110 172 169 154
0.1555752683932558 0.1000835094909545 1.1806029870689920 158 155 148
-0.1496621445672559 0.1048272640205418 1.2633472387757205 160 153 135
0.2112216464914985 0.1004279134972968 1.1676888328705270 120 119 98
-0.0853109125409875 0.1039190767665102 1.2438088864107264 159 152 142
0.2262755077311363 0.1012558678318013 1.1630726663674786 153 148 129
-0.2561903668660119 0.1075103140625717 1.2841447342345937 149 133 118
0.2344244170729018 0.1018821540597282 1.1588000970413004 162 156 142
-0.2198158334793543 0.1080572396282671 1.2715870361682406 162 155 145
-0.1594377637070185 0.1075249217584228 1.2570573188807381 158 147 143
-0.0311452375273160 0.1061705887438207 1.2244943122253160 180 173 157
-0.1414155292240922 0.1076424400619435 1.2514846441397482 167 165 144
0.1285275726282702 0.1044688654734922 1.1823356321829137 178 168 156
-0.1194800176160053 0.1074997632204970 1.2459970764329911 190 181 152
-0.2707601872006939 0.1097958963594087 1.2834150265197724 154 148 126
-0.2346998853204812 0.1093866153146731 1.2740140070860813 139 130 113
-0.2243619077351200 0.1092077889560471 1.2720335580396298 134 134 126
0.1133416135167866 0.1053049034318082 1.1852239913213840 185 177 164
0.2194669037656387 0.1042962816323577 1.1595183697236457 156 148 137
0.0320676827709102 0.1064277169274941 1.2067092519234563 171 175 158
-0.2683911238403515 0.1103635117810535 1.2821633143822433 192 194 181
-0.2843717484682320 0.1112349334874669 1.2847371732827739 170 172 169
-0.2262292766235261 0.1105212408986640 1.2694602557145382 169 168 140
0.2082963941156030 0.1055819857685019 1.1596763944681747 149 142 132
-0.2335962671104481 0.1112363587268341 1.2701886272721117 173 173 147
-0.2871269982351397 0.1121217582773560 1.2845301399066613 152 149 140
-0.1527049737791742 0.1106898532023365 1.2513935804522445 196 184 160
