ply
format ascii 1.0
element vertex 684
property double x
property double y
property double z
property uchar red
property uchar green
property uchar blue
end_header
-0.4481916419594638 0.1594445056324140 1.0736921966553743 235 242 248
0.3667202343143485 0.1439329032496454 1.0963147640785211 39 35 24
-0.3975722724350465 0.1649007163186836 1.0711426884563162 229 230 232
-0.8718297828516064 0.2888102545816564 1.0405206944330749 207 216 221
-0.9454485124111603 0.2905727591487877 1.0363464125212705 181 182 187
-0.9089667452333539 0.2899303481550886 1.0381116767579426 188 193 199
0.0066224860318786 0.1731001385274423 1.0813928022949419 220 221 225
0.0323566840187078 0.1749085637207917 1.0819655421626144 150 150 152
-0.9621487422966443 0.2950104304063148 1.0289984849932026 230 233 238
-0.4688779688271693 0.1683619016285640 1.0607525308334984 228 232 235
-0.0307131521027540 0.1772484020443522 1.0745073925080297 231 234 239
-0.9329297570215470 0.3003538601868261 1.0262875988688975 177 181 182
-0.2669605172383329 0.1759650113717667 1.0623823854586159 228 229 231
-0.2861855921280252 0.1747428406693061 1.0607166025207899 229 238 243
-0.9259801627300077 0.3022709654187044 1.0215653217579179 226 228 227
-0.0446670650376470 0.1824220259525866 1.0655129472642824 151 143 140
-0.9356910980902768 0.3036510606541324 1.0186596337042118 181 188 194
-0.2408539703181823 0.1806723988898750 1.0574197860649892 219 218 216
-0.6219296678764772 0.1782641238593307 1.0412057096459790 161 163 162
0.2113156766090414 0.1907346673567546 1.0695975095105024 165 159 145
-0.9675360740041982 0.3085026450662517 1.0125128414904454 202 206 205
-0.5355150014659118 0.1808652720094572 1.0426215114558615 205 205 195
0.2457793132589517 0.1927981598900739 1.0678444261679731 245 239 227
-0.3238423971598373 0.1823249858877641 1.0496946738329125 231 240 247
-0.5671642692068504 -0.0746449654839774 1.5668709306817536 164 163 159
0.0487705656481841 -0.4791524273173073 1.9328804270812943 220 229 236
0.1136037027055875 -0.4779471140437331 1.9355760205529591 187 185 186
0.1620855659391892 -0.4760877058091981 1.9369766754383304 233 230 225
-0.5819053129869231 0.1514696798497762 1.2425056502969363 213 220 226
0.2632318398341476 -0.4747552223470972 1.9401406040349549 217 213 212
0.1104378306728401 -0.4772466196294887 1.9338524884725008 231 236 240
0.2531946076811489 -0.4736144979457964 1.9393177969711521 116 106 94
-0.2590182960675635 -0.4861671152222303 1.9248190087480916 215 215 213
-0.4133463698543370 0.0533569795765863 1.6000341842270394 191 184 174
0.0819481116141444 -0.4767213925502992 1.9318765994579084 215 224 233
0.0919088171787668 -0.4774865729539710 1.9327757764162725 157 160 169
0.1817234709369371 -0.4755130708049086 1.9345350980904106 238 243 247
0.3165912438490291 -0.4716871516007070 1.9400458995418579 152 143 136
0.2781289824783315 -0.4720248373168779 1.9375200192327240 219 223 224
0.3597784711401483 -0.4906000403420754 1.9287283375326314 113 108 105
-0.5258662587778709 -0.0494517161124668 1.5682489399817281 206 207 209
-0.4319086697435325 -0.4882585183942633 1.9196274909190991 197 196 191
0.1994677575215560 -0.4728241966826991 1.9342131609474660 207 211 212
-0.5079666749054225 -0.4901557593603269 1.9187813750115399 218 226 229
0.1602637793209024 -0.4740997599783816 1.9329436674803708 213 214 216
0.3745607104855367 -0.4892205954842960 1.9276264099175633 147 143 140
-0.3264070043186575 -0.4853410374295268 1.9199565115027841 240 245 249
0.2223680693649868 -0.4723269801723035 1.9348937106577142 220 214 200
-0.2276973851622296 -0.4820017115273025 1.9222919489524375 225 225 223
0.3802287149638018 -0.4888226621997244 1.9276581899675094 137 134 127
-0.1355384190309397 0.1023943492968712 1.6126272476958916 162 105 76
0.2869240234550538 -0.4706910176319829 1.9364313264393509 208 213 217
-0.3430510258194683 -0.4848489583352399 1.9191854336343022 224 223 219
-0.3984069319503429 -0.4871273208166342 1.9176521817664987 195 187 184
-0.2323376992531068 -0.4809903147879687 1.9217266515780393 229 233 234
-0.3181615261908849 0.1961355280450208 1.2424290795368089 207 207 207
0.2455629893537739 -0.4714697745132944 1.9341808352325094 206 213 223
-0.1334191230862164 -0.4798578101829338 1.9216062334664927 232 233 237
-0.0481264739534036 -0.4760055277367038 1.9250841180945013 246 246 246
0.2493193700241666 -0.4700218219305626 1.9331329351876363 146 144 147
-0.2151333164362443 -0.4801708296894703 1.9196088032701779 166 138 127
0.1240863873153398 -0.4729548976354513 1.9284545299485840 214 218 221
0.2460365487439129 -0.4698461755537387 1.9313604608504542 225 232 238
-0.4098215797923142 0.0695142234588955 1.5878785258837544 127 111 96
-0.2827482009910820 -0.4814475444578489 1.9166403003550327 218 227 232
0.2330438264617812 -0.4698296326883658 1.9309864079172998 230 239 246
-0.6235951804754649 -0.0840147965350844 1.5451344493084140 211 223 235
-0.0877504552483869 -0.4754325356772299 1.9215121019665851 224 224 224
0.3951441671696405 -0.4860780695021127 1.9243628557989116 30 29 24
0.1540112663954653 0.1163864461328369 1.6102567519670918 147 97 70
-0.1584568407347185 -0.4769969631082511 1.9193673549231947 240 237 232
-0.0681780161182996 -0.4748025475106439 1.9224839552169579 146 136 127
0.0836832299785817 -0.4719257575048801 1.9258535802813126 187 195 208
-0.3599063137621125 0.1727113078966778 1.2350386744732142 182 180 181
-0.5111120005137401 -0.4867822218407508 1.9135105416483946 173 166 148
0.3384433317570251 -0.4853355046542753 1.9219604138381636 192 200 202
0.1915965575443605 -0.4694709262368818 1.9286948739485421 218 210 199
0.2897715389085562 -0.4666762233297371 1.9315110054682070 237 239 238
-0.4837183261906380 -0.4826627729963995 1.9135717946782644 126 107 100
-0.1554413053910098 -0.4759491748031693 1.9176882163167042 177 171 157
-0.0970846027191197 -0.4747781689742592 1.9189599230216334 219 219 221
-0.1105882594380768 -0.4742964760841317 1.9179295091178112 228 223 220
-0.2105047333965928 -0.4759574187829044 1.9156728041465887 228 221 213
0.0468892386578332 -0.4703734505409615 1.9221137287059527 212 207 203
-0.2464447880667653 -0.4756919160627159 1.9136419487551031 231 227 218
-0.2991874769478331 -0.4794657340182943 1.9127815298808433 192 194 193
-0.1141307005671473 -0.4742128760378355 1.9174004716505939 192 189 184
0.1435102883741186 -0.4660819180030371 1.9217703494715515 189 185 174
-0.3738523937006306 -0.4807641466611868 1.9120143530377929 176 167 152
-0.3451888207411854 -0.4796934605947658 1.9108758988242240 135 128 122
-0.2537375174895892 -0.4757701211235723 1.9135872215515435 133 123 113
0.1902377248677303 -0.4648886002363165 1.9227217955274170 180 175 169
0.2898549007435404 -0.4632183068866494 1.9287751250011891 110 111 115
-0.4402529835001735 -0.4794122945700164 1.9072615184257404 189 183 167
-0.4511620887354663 0.0654416921554442 1.5773091421776475 154 142 130
0.2139453459256648 -0.4632386374906546 1.9221193984614000 161 159 160
0.2913791589406666 -0.4619240315070057 1.9255486420102406 220 218 219
-0.5218185483163138 -0.4812028421227686 1.9059509441208884 166 178 190
-0.4506987391793733 0.0669009573289032 1.5760342018713502 157 150 142
-0.3367151234501707 -0.4784841358640217 1.9106396868556010 233 242 247
-0.2514793226894296 -0.4713203033126606 1.9107524626895265 163 155 144
0.1495406115097489 -0.4645687634155233 1.9195998166215162 229 230 234
0.2500263141729567 -0.4622286759048804 1.9230272094268703 192 191 196
-0.1293200442438686 -0.4694574858897799 1.9119860381255598 166 158 155
0.3586467412220654 -0.4789911744428320 1.9141140524144640 109 108 103
0.0323215285926418 -0.4662741313494067 1.9151901038290295 217 218 220
0.0522796096667316 -0.4646560853738040 1.9162014109596586 156 142 129
-0.3496932666481836 -0.4753548566739682 1.9044191975560212 194 188 176
-0.5661577241774042 -0.0473150537297796 1.5388480735170589 177 176 174
-0.2743298569615351 -0.4776037609457004 1.9104589643236263 235 242 250
0.0830912811980897 -0.4677091343993414 1.9198362867081002 217 224 232
-0.2128751692148167 -0.4702498188897976 1.9074022395539940 213 213 213
0.3313693521347169 -0.4715222549339452 1.9148490013995088 129 126 121
-0.4805354297388112 -0.4795143772921640 1.9089842293772270 166 161 155
0.0758801650067769 -0.4635194695469592 1.9133581266634858 240 245 249
0.0123163245216457 -0.4634455102677636 1.9117544231632966 207 204 199
-0.0162538379755529 -0.4679566671744251 1.9162903794625195 232 233 235
-0.4300626588348554 -0.4750718561059016 1.9008242777145852 163 162 157
0.4015959393419213 -0.5068909654709570 1.8980473814876486 125 121 122
-0.0096466580461186 -0.4625334602247030 1.9098372646753909 209 207 208
-0.0589505185256101 -0.4665798178441750 1.9147180769622385 214 214 212
-0.0729823428532282 -0.4642903405930266 1.9071575853828358 209 209 211
0.1670629386847343 -0.4592735043854593 1.9139786579132001 222 222 224
0.2942182462652827 -0.4600025859638124 1.9240228026105008 120 113 103
0.1745673763366013 0.1361455046502299 1.5885529493114057 146 92 64
-0.2980343372438565 -0.4705737909623960 1.9009829592016856 218 219 221
-0.2557421316658453 -0.4725014241497609 1.9070744790881984 119 80 65
0.0673053501227862 -0.4606802628036759 1.9103290550736436 189 193 202
-0.2083541956289615 -0.4703334611273041 1.9086658718643374 219 216 211
0.2370744699096962 -0.4564977618555502 1.9158452506270183 204 205 209
-0.3960319832751521 -0.4711995817997970 1.8997735265547664 159 162 167
0.0650619672409995 -0.4643536668320071 1.9145728761563063 210 217 227
0.3571183281094196 -0.4738363467108634 1.9071624605023125 149 145 142
-0.4832727743160920 -0.4755153133281059 1.9041334291920160 165 155 153
-0.3572278858285517 -0.4694124361825950 1.8994598616381375 169 159 147
-0.3370100999635583 -0.4700499308634222 1.8990844282649229 175 175 175
-0.3057632470015721 -0.4732128984675383 1.9048039412031779 224 232 235
0.1597017136022279 -0.4568104911474777 1.9119539844143207 249 253 255
0.2000384925020792 -0.4606001189302529 1.9179829756016329 208 209 211
-0.1638301871887142 -0.4677422444667744 1.9077306547857644 175 168 162
0.1006790964209736 -0.4580287960148784 1.9084054147823162 184 188 197
0.0849536459121001 -0.4632009528297132 1.9131662021627738 192 198 210
0.2112856994288462 -0.4546608887775324 1.9125218635879007 124 124 126
0.1264410922164021 -0.4619407489601199 1.9143100689831529 224 220 211
-0.1909253746293344 -0.4645647367538199 1.9002036777201385 230 230 230
-0.0707976225848515 -0.4594434216875103 1.9040373091976102 159 150 141
0.1161047540011073 -0.4571177843007695 1.9081955414808560 228 233 239
0.0142685433358244 -0.4573238952167914 1.9052309108701957 170 161 154
-0.0851609093772115 0.1458180127855523 1.5686320626107242 179 126 95
-0.4910677532487345 -0.4690373315850492 1.8939016775897051 120 115 109
-0.0044247147775239 0.2255748453965920 1.2119012588693490 183 179 180
-0.2580104032579061 -0.4641951385137618 1.8963135232675934 227 228 232
0.1014116054861473 -0.4557885067491468 1.9053957297217048 229 236 244
-0.3919771436702795 -0.4715402078779232 1.9008526302249871 210 212 211
-0.4867352800847175 -0.4694559614746209 1.8926833573527195 234 236 235
0.2902295088253332 -0.4564344685859265 1.9180859039624105 238 245 251
0.3117488608124900 -0.4563856459268234 1.9187453463195827 213 206 198
-0.0589995057320721 -0.4628733998675033 1.9069991902328176 190 200 210
0.3603613285161676 -0.4673724330796724 1.9017465495080117 107 102 96
-0.1072759438123897 -0.4572654532617603 1.8992284847878460 152 147 144
0.0807229845004561 0.2258225660987926 1.2111303034662670 214 220 232
-0.5279342724171168 -0.4690521817493337 1.8908685695417844 226 235 242
-0.3572525850913831 -0.4645732644388184 1.8928098293625155 231 233 230
-0.1852982079597864 -0.4653870091698396 1.9036556570418990 209 207 208
-0.4521299554015929 -0.4734895707137499 1.8974922766896007 223 228 231
-0.0305620513470324 -0.4558035419835534 1.8992711718544473 228 226 227
-0.2368032855036140 -0.4664534456223647 1.9017256597119434 166 147 133
-0.0175706376419892 -0.4557415236762854 1.8990308042551909 226 224 227
-0.2524151413602715 -0.4641971518978243 1.9023675394420123 182 178 166
-0.9123881525587575 0.2327421293493310 1.1718923832428285 122 120 121
0.3826954091829123 -0.4725939985949145 1.9063988597975257 130 130 122
-0.2511094644036374 -0.4601868213616549 1.8934525399998257 224 219 216
-0.0577635830151588 -0.4553656234329581 1.8984077925575391 211 206 202
-0.2830131616891169 -0.4684590580845011 1.8982502849625120 230 232 231
0.0333200153909209 -0.4594143457033707 1.9064272898857635 230 231 233
-0.0850723269026861 0.2169407014953867 1.2006994593051930 202 197 193
-0.2559140744670649 -0.4650147777950394 1.8996901094175433 145 136 121
0.2170448979601090 -0.4501491440244823 1.9050263533365903 222 229 235
-0.0278845747225735 -0.4539219672792160 1.8980794560995522 168 166 169
-0.1069007290829916 -0.4606970401225792 1.9015254870649692 250 249 247
-0.1118039131757163 -0.4558233338011463 1.8949558364071493 221 225 228
0.3605399601873923 -0.4654939063071752 1.8978427344242943 200 204 207
-0.2464554078706869 -0.4629920569210904 1.8971170731733613 220 217 212
0.0064393049641625 -0.4564929521236675 1.9035812096152114 194 185 176
-0.7068775693220640 0.1859944197319812 1.1743021897036905 105 104 100
0.2523884209876070 -0.4541907868113594 1.9095346820010863 221 221 223
-0.4568645864729983 -0.4648538221979188 1.8878149689436536 176 171 167
-0.3186653139125858 0.2046240676677127 1.1890745893561885 198 193 190
-0.4418674363274625 -0.4671776208261302 1.8917224851873873 202 202 192
-0.5153996204497158 -0.4654514227063027 1.8862930636013215 199 210 216
0.0214631590889343 -0.4550479228745034 1.9021786115823345 186 178 176
-0.4546320273063852 -0.4635521106753580 1.8855375561833401 214 218 219
-0.1547570987607677 -0.4604831096949877 1.8960643642603476 221 222 224
0.3550045555829655 -0.4655508437787594 1.8999587494231005 194 197 202
-0.0827456186704618 -0.4490120650214225 1.8946112441153167 212 206 192
-0.4484751743670891 -0.4671264312654211 1.8893074199023741 213 215 214
-0.1184277046639743 -0.4563370026821609 1.8962205666287042 209 210 212
-0.1754255243614856 -0.4548987426250860 1.8892026641207749 227 225 228
-0.0719201531652007 -0.4558424885742278 1.8971670429952554 234 231 224
-0.1242975063458457 -0.4537364139589189 1.8901007256369331 234 234 236
-0.4647762870062562 -0.4661085571768550 1.8888186153913054 229 236 242
-0.4721590246964154 0.0670599960995760 1.5178009235176513 128 113 106
0.1420627225182700 -0.4505339039750350 1.9022206499518659 243 243 243
0.3929810664603286 -0.4652404389978337 1.8977808021487501 157 160 165
-0.6538656477546115 -0.0399349915785879 1.4870340058787144 208 204 195
-0.0181977806625203 -0.4527408880772804 1.8963265932718436 187 188 193
0.0567978912000277 -0.4497282704195591 1.8992446967846426 216 208 205
-0.0607620242274610 -0.4539742710266053 1.8943211318596065 203 207 216
-0.6209613836605816 -0.0368904711061394 1.4847426575608762 198 200 199
0.3350847756179418 -0.4604715848008702 1.8965347768483063 236 240 249
-0.0729029022378967 -0.4537097366034794 1.8921816563383909 221 220 218
0.3296937992742948 0.1872822049994324 1.5509373203983849 151 143 130
-0.6904144650818191 0.1769417169620555 1.1734172108021985 144 144 144
-0.5363400095163355 -0.4638046012030637 1.8846081472215370 180 176 164
-0.4809359537756615 0.0193075374897450 1.4989300470802709 150 145 141
-0.4435823045157211 -0.4565868096720031 1.8769302558836014 182 177 173
-0.2738574457463664 -0.4566260468098580 1.8856850754922834 91 83 80
-0.4782407668300733 -0.4612300596610098 1.8814446141781234 226 231 234
-0.3907309314892435 -0.4527673271792497 1.8772105459738331 149 148 146
0.3398715601997397 -0.4538838545254194 1.8823085557068342 80 76 75
0.0746909356540439 0.2211913009324785 1.1929664298181433 213 220 230
0.1996053698817835 -0.4418157617981001 1.8948466921576774 218 218 220
-0.2018857460690198 -0.4517797944172571 1.8819328689126389 235 235 243
-0.8387858979742495 0.2091816495203686 1.1552138004806558 144 143 141
-0.3450266795540550 -0.4480164349241026 1.8703198094808666 203 203 201
-0.8794999002376708 0.2068600465409469 1.1533652689152376 133 123 121
-0.6398819715702138 0.2119764724254087 1.1616754299381409 185 182 177
0.1747025441372946 -0.4344186238842336 1.8842306817236052 142 140 143
-0.0130534090465639 0.1882396642540157 1.5190587690245687 159 108 81
-0.5058430351653057 0.2166107891865961 1.1634508102358418 177 173 170
-0.4204365547285152 -0.4482445665752672 1.8679535255546442 231 236 242
-0.4484988765616080 0.1109372667184421 1.4908535836053272 144 139 133
-0.3128625821459823 -0.4452699104666129 1.8687312623359511 203 203 203
-0.2411132202465840 -0.4480790071487770 1.8746825025146021 182 182 184
-0.3187995591352428 -0.4435892216325426 1.8663841247923352 241 245 246
-0.6434217337046133 0.2056953332420983 1.1508359121410114 166 167 169
0.0641588939360791 0.1970697894819978 1.5101146369695786 173 117 84
-0.6509537866769396 0.2051794889409355 1.1503755029763296 171 171 169
-0.2495271988305220 -0.4406097480953343 1.8675401132791332 227 231 234
-0.2605780393446983 -0.4465934050485854 1.8721903730778671 222 224 223
-0.1844226934253503 0.2283841493154763 1.1666688725114658 178 166 154
-0.2902199932431522 0.2251867477930302 1.1622832733378472 175 167 156
-0.5039523150817382 -0.4509309742339748 1.8692460789396330 205 207 206
-0.3516091886445331 0.1487808421090278 1.4852033246305454 155 142 136
-0.4811431193705404 -0.4426962411480839 1.8606816922890044 217 221 220
0.3861324806542015 -0.1309692485027553 1.4536014855898862 54 57 62
-0.6692716643149564 0.1914102600306127 1.1393560174787039 136 133 128
-0.3142955983451227 0.2125477908698938 1.1526020063720399 189 188 193
0.3859338384564094 -0.1283863349021258 1.4500033705069937 55 58 65
-0.0074125500657078 -0.4309899383349320 1.8677297050983657 196 203 213
-0.4144011270020985 -0.4458065895065288 1.8643405441589149 196 197 199
-0.0202697594970861 -0.4302932913139910 1.8664608371730980 205 210 216
-0.3744085126611147 -0.4450418470134429 1.8632888125067268 195 195 193
0.2650036183964887 0.2101836413378100 1.4949148203602454 156 101 70
0.1726252649243714 -0.4293563260876609 1.8764084337167410 192 193 197
-0.5285598733498789 0.1881800597742363 1.1346812251945195 159 155 152
-0.0732944629924752 0.2156272144429860 1.1490195737032423 187 186 184
0.0429455295137632 -0.4275438676691276 1.8656933488222018 146 138 136
-0.2207339159135339 0.2055906024861728 1.4756951501735978 131 83 60
-0.3330936698923568 -0.4377771460931647 1.8558520194092856 217 217 219
-0.6394363187195453 0.1776055126274464 1.1281145914156023 90 90 90
-0.3898231410454480 0.1899702175127318 1.1359154554444646 115 114 112
0.3855536507909778 -0.1187002229043431 1.4363998961864741 57 54 61
0.0876311184263468 -0.4236393976238346 1.8656259594933799 145 139 139
-0.0883737342481731 0.2081569484640464 1.1440577678284090 114 110 107
0.3065917516761910 -0.4199463531833756 1.8722524978113999 216 211 208
-0.3749903852676750 0.1906439435532215 1.1332312309216592 152 150 151
-0.4994312543123213 0.0512692898186119 1.4358625898441162 228 228 228
0.1155850811083001 0.2140124130105134 1.1469416439529181 195 180 173
-0.7710074447683126 0.1616938266385191 1.1159893165099484 182 192 194
-0.4254519304883504 -0.4388193206383381 1.8550502684501080 210 218 231
0.3298684434957235 0.1984361736010397 1.1501297133941570 41 38 21
0.3644851450318619 -0.4408377072572969 1.8634917919059202 149 149 149
-0.3444236780290049 0.1833767518786683 1.1303140696213039 185 178 170
-0.2229324871348355 0.1925883302258522 1.1336266516488442 143 139 136
-0.5810399122716703 0.0161982094994969 1.4161091800913277 227 232 236
-0.5198094532480548 0.0573550942095171 1.4237697804583844 188 176 164
0.1738460246378966 0.2045814614085804 1.1408672509288691 171 174 181
-0.5676070741988675 0.1584856494694712 1.1104775768408719 77 77 77
-0.4506446068676224 -0.4338787408318487 1.8483718837420311 184 184 184
0.0894946688657739 -0.4213843333218739 1.8589966831704552 188 179 180
-0.9208431940957607 0.2522102873726759 1.0894490316707703 223 225 224
-0.4195086629063987 0.1244178975921317 1.4277153731177379 122 113 108
-0.7299620638425988 0.1433374440974199 1.1012965034596980 116 120 123
-0.6147783139849829 0.1536588087372222 1.1048403812045327 102 101 106
0.1878770057098288 0.1951218648732381 1.1307705358974356 121 117 114
-0.3843921603943683 0.1706490494752059 1.4312734535161273 177 175 176
0.3864972712310857 0.1611766630246837 1.1365698694177733 44 35 26
-0.2318934696105956 0.1690084065627440 1.1166716443565343 172 173 175
0.2371055156849164 0.1889135094930568 1.1289824574544041 168 178 188
-0.4338073533063903 0.1580194313697236 1.1078381400166921 151 146 140
-0.0608619349858577 0.1749873604944980 1.1194043785405616 177 178 183
-0.7276916007214955 0.1348681638577884 1.0948081594695434 62 60 63
-0.2963866046574795 0.1606204938542316 1.1107759533679764 149 152 157
-0.4140482796997822 0.1290133471831564 1.4216574949345382 132 131 129
-0.1673633786922688 0.1645865006608039 1.1144677269248933 138 136 137
0.0542519568991770 0.1771501761014398 1.1201908244663097 172 175 184
0.3566030326182737 0.1555291417905786 1.1268453120642044 117 114 109
0.3723165153457258 -0.4250262025392839 1.8447824911664248 39 35 24
-0.2267334793856414 0.1550784638624906 1.1050850548573032 158 161 168
-0.2013462207070095 0.1542068359135954 1.1051626537377421 142 143 147
-0.9061582780643218 0.2655901522748349 1.0693707416261691 207 208 203
-0.6828511556968134 0.1225228116760373 1.0856611962280802 151 155 158
0.2254608215979677 0.2431099632419829 1.4410067232552501 146 139 131
0.0920513073056344 0.1637713764062507 1.1096216352314201 194 198 207
-0.2784720861954422 0.1489637846701532 1.0960152354641921 208 218 227
-0.1056146376795606 0.2174875078312368 1.4210034014861070 183 179 178
-0.3464293714753551 0.1918509353918686 1.4093496588227552 162 161 159
0.0098169167850829 0.1570648703589442 1.1016113502472566 211 214 221
0.3798254286152471 -0.4179051351986186 1.8339823138058098 152 147 144
0.2375407184712800 0.1645200901380363 1.1052954765815153 235 233 234
-0.1483733960662978 0.2117246270952294 1.4145982779964144 225 229 232
0.2250656712918355 0.1653544930804130 1.1034283787823020 135 134 130
0.0246275682805220 0.2161857908785964 1.4184689893768712 217 213 204
0.3773764108236241 0.1367549730457197 1.1071212389415868 67 61 47
0.3232580387805769 0.2288863572419643 1.4254523670147929 86 84 85
0.3425950360353384 0.1466451222195898 1.1045561163067152 46 37 22
-0.1495437455106720 0.1611428866557419 1.0877495788016438 161 161 163
0.3886538136900188 -0.0815181589812325 1.3852397771395446 150 147 138
-0.4714552876622471 0.0959923818947161 1.3815988522539797 206 201 197
0.4009104753596919 -0.4825441209757037 1.7877884248847107 161 161 161
-0.0141610766843239 0.2222216848936276 1.4086992723262224 112 98 95
0.2656470249862726 0.1733813867119320 1.0963816804864646 236 236 236
-0.3427555954562767 0.1585866366037484 1.0775545767290489 212 209 200
0.2028039025422280 0.1766633901093856 1.0871225508693587 214 219 223
-0.1779025424891067 0.2270306583844616 1.3933149888600751 215 219 228
-0.3478025146861401 0.1820914400138241 1.3781617313514527 142 135 129
0.2595883582029186 0.2434164785725912 1.3983683827821773 221 218 213
-0.4116333892781003 0.1748618390220226 1.0570807053015721 233 233 233
-0.5537188979687974 0.1769178111697917 1.0504026881055151 222 226 227
0.0865442332587836 0.2379233277359639 1.3901700444671972 188 183 179
-0.6803201940424470 0.0539015750852637 1.3420460465248358 165 164 159
-0.1515843640304604 0.2384736584965528 1.3738712803573931 164 144 137
0.1404524267212169 -0.4744292847837970 1.9323041545471571 198 189 180
-0.4968303610297584 -0.4893246705404307 1.9185235378332555 207 212 208
0.0563124278271278 -0.4749117718498901 1.9292003804053084 164 152 140
-0.0633631334832006 -0.4766660902959164 1.9247188193577311 212 212 212
-0.2376116527255143 -0.4795498512539283 1.9204346317521934 130 110 85
0.2829780601486098 0.2533315932286339 1.3788765923017512 148 144 141
-0.0554308566763453 -0.4742794396459400 1.9240074479166835 218 215 210
-0.5160735933850989 -0.4869149529724959 1.9148310029225091 219 220 214
0.2544849396045526 -0.4680894439037128 1.9324968156466373 212 213 217
0.3750361811558082 -0.4864081879376523 1.9228005143287972 122 119 114
-0.1641124636517695 -0.4757115008648793 1.9199892374191310 167 158 151
0.3974156823733894 -0.4882808766041304 1.9216214342211799 40 36 27
-0.1820072389559721 -0.4756820560867140 1.9172527642382673 226 226 226
-0.0398419664396770 -0.4716977422513127 1.9219323272041271 170 163 157
0.0666658126800603 -0.4707492987498702 1.9233838549345901 226 233 241
-0.2387448890331042 -0.4783753972151199 1.9153557387712890 213 208 202
0.3792314116837460 -0.4826465413723363 1.9205153288705168 179 172 162
-0.2725203931656384 0.2104363495546211 1.3484669407505527 198 201 206
-0.4532750678419615 -0.4805452746197390 1.9075708651696057 212 213 215
0.1959697406851861 -0.4650584247251927 1.9231440991998252 202 201 197
0.2762519131092380 -0.4629188644965949 1.9262110141147608 218 225 231
0.3890697536821009 -0.4811644142720156 1.9175024673811036 41 38 29
0.2950644523479194 0.2533538107784871 1.3630047140312029 207 207 209
-0.5381051990150755 -0.2961264303379833 1.8260400031156236 179 172 154
-0.6995086657523508 0.0296926198473396 1.3135023422578898 102 121 136
0.0171181316528629 -0.4654415656138147 1.9157036091649722 213 209 208
-0.3336992007260173 0.1560035065175125 1.3316305602996237 186 178 175
0.2183620989849017 -0.4606577936968823 1.9200227503166658 223 230 236
-0.2592503581745346 -0.4724424102406081 1.9052624619434002 215 213 214
-0.1997483713362859 -0.4697455744479592 1.9073356423391867 215 215 217
-0.2441233331812898 0.2106948881660178 1.3354364459587162 154 147 139
-0.2577387009794032 0.2010259819105565 1.3331070084074170 184 185 187
0.3593193636173042 -0.4764137478788094 1.9107243458038063 179 179 181
-0.3121014340911036 -0.4721884629704680 1.9020924750555162 223 223 221
-0.0461686700257080 -0.4640782755358415 1.9080047921901804 186 185 183
-0.4259770141504950 -0.4737262429483405 1.8999422519283136 205 202 195
-0.4446086608594516 -0.2853066757213494 1.8168543447491172 209 209 209
-0.5715430996290346 0.1026231970198202 1.3066563163472962 232 233 237
-0.3970427326958568 0.1535119529328029 1.3152777138226237 236 235 233
0.2292500927875483 -0.4556679856071594 1.9141849086674123 189 184 180
-0.2162065722147012 -0.2417121064310182 1.8367104026943966 201 205 208
-0.3457007638661055 0.1562225003939831 1.3145638319454249 222 220 221
0.1272733242354175 -0.4574065360515435 1.9077128613352634 218 215 210
0.0040999163266489 0.2205380544351122 1.3267163797347026 202 195 187
0.0191215642387564 -0.4561406579872326 1.9057459271980499 201 194 188
0.3917908752499583 -0.0641299636710770 1.3157940771199821 153 153 153
-0.1955756058915219 -0.4614177809899839 1.8978272392622721 172 164 161
-0.2132816784374470 -0.2322379035770211 1.8326220191775027 218 222 231
0.2617850866174909 -0.4516696202993498 1.9103288149913846 146 144 145
0.3473764070285683 0.2066631853886539 1.3259881937533420 170 165 162
-0.4172162698731687 -0.2769772994519156 1.8083981010682282 233 233 235
-0.1606602314441520 0.1985898449730282 1.3084058427118539 204 199 193
0.3037434914825684 -0.4507653925632233 1.9108269222991716 183 186 191
0.3851278312746022 -0.0169796492906472 1.3078592629108980 53 52 57
-0.2691908211032253 -0.4644081783530669 1.8932816128578098 237 242 246
-0.1896714437948167 -0.4607368189494464 1.8956764573046654 195 190 187
0.3703212426473985 -0.4670489979233234 1.8990320094137736 151 144 136
-0.5308384601833459 -0.4682977663262265 1.8881823393822492 126 120 122
-0.4011651685864435 -0.4631533170920961 1.8871312013738550 203 202 200
-0.0967453164720111 0.1987467373914083 1.3036158203924193 213 214 216
-0.5029309057592254 -0.4641942273593250 1.8852351106735350 209 216 222
0.3591359997564894 0.2047155692205672 1.3101122056617378 215 210 206
-0.2393696613817091 -0.4536877461120977 1.8861717071306732 186 178 175
-0.4308856039029452 0.1448941721264027 1.2812478467588775 164 155 148
0.3685633294843975 -0.2453508664933783 1.8108766253291897 144 140 137
-0.4590528762162628 -0.2644871047065890 1.7868121438685907 156 152 141
-0.3080009365232108 -0.4509849449758628 1.8747288101386319 215 216 220
-0.1909001434427202 0.2019907120465785 1.2668372217377095 211 210 208
-0.4970035298522080 -0.2569790268853804 1.7759807751255228 215 222 228
-0.3959792337277070 -0.2188316092713488 1.7936310215957660 213 216 223
-0.4758154286148448 -0.2574901754054486 1.7756493608872097 215 224 233
-0.7086609731184784 0.1334324891242550 1.2447619040344122 58 54 42
-0.1733440736307617 0.1991757623949297 1.2653863258288245 232 237 243
-0.4890537412303929 -0.2557255387752047 1.7753660346449438 178 178 176
-0.2757303392636854 -0.4443662271794618 1.8631484955323871 182 183 187
-0.5357449756985031 -0.4462543642903080 1.8602588350907057 206 208 207
0.3708551366420693 0.1965090920169924 1.2675338430020109 182 187 191
-0.1020877168767465 0.2159094995007862 1.2527352392939022 185 180 176
-0.4295253578779445 -0.2177747989556393 1.7795715616901664 196 195 190
-0.3729319488142139 -0.4370224332700208 1.8555561079212244 214 213 218
-0.5126052720856153 0.1660503371822867 1.2283183097661352 227 228 230
-0.6671305133783028 -0.2498158309841655 1.7593378712912138 165 169 170
-0.3185374808299444 0.1943119844375033 1.2349047116390213 206 211 217
-0.1631635944450252 -0.1042310775367209 1.8227210943933629 231 231 233
-0.5273377547974213 -0.4348552260048815 1.8461165921305498 189 189 187
0.0532404626228084 0.2286205824909535 1.2372635478917395 229 220 215
-0.2871990677818777 -0.1036200583186624 1.8121525223792361 211 210 208
-0.2483810175929159 -0.0964337501631948 1.8066366831640992 224 223 221
-0.5175081038936055 -0.2368701454849940 1.7497477495768876 225 229 232
0.3699965479766734 0.1959792591340410 1.2370180669139634 171 166 162
0.0475701753767249 0.2298135342622902 1.2278471060822083 197 187 178
-0.6908946653791739 0.1554269623478751 1.2017347116415986 145 145 145
-0.6730854799852657 0.1792233260368399 1.2028249570022540 181 181 183
-0.8633929558089193 0.2525415061349546 1.1917786840856430 203 207 208
-0.2680905012611818 -0.0932487456527671 1.7988013621706869 219 215 212
0.3049680833167538 -0.0492242277820632 1.8263655349095216 126 71 40
-0.6292551345397631 -0.2316124375107337 1.7353253816699767 198 200 199
0.2352861220778492 0.2320475690338075 1.2172386492636951 162 163 167
0.3459561595063794 -0.4180913777979205 1.8333300783739299 125 120 116
-0.6536418965229234 -0.2297204234273953 1.7286591918459606 186 186 184
-0.3019910311593426 -0.0812106949479998 1.7823009512664352 193 189 180
-0.8487160607111307 0.2330878271804732 1.1756292038972060 201 205 208
-0.0909980778044360 0.2183043723686022 1.2021096665971149 208 199 194
-0.1303009061043225 -0.0431959439652877 1.8000914643749728 160 107 76
0.3093932331493194 0.2312039402534618 1.2103629853890261 165 161 158
-0.0015908938195412 0.2179173847538664 1.1998190616420539 226 219 213
-0.8476313731376174 0.2262957152220045 1.1677077729529681 205 204 209
-0.3094559209890336 -0.0770700676555274 1.7773774470430224 197 196 192
-0.6490696820803167 -0.2211122732373764 1.7206344134122955 156 153 148
-0.9051097718050910 0.2169211479718872 1.1637717638727876 184 188 191
-0.8883075472542824 0.2201190213236059 1.1639075606769855 90 90 92
-0.8739336582424346 0.2169110215672923 1.1645352314418012 160 153 145
0.2944096462010048 -0.0287746406105862 1.8063631600655079 152 96 69
0.1673885468051020 -0.0206223649927752 1.7915109097144182 172 117 87
0.1757687163882446 -0.0190692250063933 1.7919755839931093 135 85 62
0.3604481138714757 0.2289443835193853 1.1910245914088606 166 162 150
-0.5004854225034562 -0.1852285578709229 1.7202713869473516 177 178 173
0.3908158699419572 -0.3057929017557400 1.6849354113171087 79 64 43
-0.3736875281884055 0.2227893322636661 1.1647405659695795 201 202 197
-0.5090072142181522 -0.1889534965893761 1.7106268688218182 171 172 167
0.1172262046089877 -0.0129672747667534 1.7871763054776328 172 117 86
0.1446305083321574 -0.0180635116358288 1.7855012425601886 174 124 97
-0.3270747318295932 0.2230939464959155 1.1635665925754970 182 179 174
-0.6179005311437574 -0.2009476278023639 1.6993621406856156 223 228 231
-0.9028969767566281 0.2164862607066617 1.1341253280335448 200 204 205
-0.5935923569015769 -0.1993383992318337 1.6974958751817257 223 224 219
-0.7786752930575928 0.1900674810787982 1.1394738556876867 89 90 94
-0.2920512756600253 0.2212961071265675 1.1566579172968692 194 191 186
0.0007423526640255 0.2328526201642453 1.1655133710660830 206 207 209
-0.5959998438333723 -0.1950779773183384 1.6925311537024779 191 187 184
-0.8078591764591477 0.1864744853357292 1.1366518725145838 197 201 202
-0.7014801090863563 0.1584798452084608 1.1425570215841536 78 88 98
-0.6918282577533598 0.1923327977394902 1.1406681854579355 99 94 91
-0.3529940197590613 -0.0537978429458206 1.7441218901298241 223 224 229
-0.5930672612548482 0.2012476128280149 1.1447994531248056 129 125 124
0.1051053957114485 0.2393867257051190 1.1670573337036425 153 144 137
-0.3653791766287401 0.2085834703916304 1.1493257107803545 207 210 219
0.3725836958128527 0.2029667790394866 1.1698145174347869 160 157 150
-0.6994391140880346 -0.1989179803668218 1.6793963791300803 101 102 97
-0.8102368948150679 0.1779257999022285 1.1292501829084944 201 209 211
-0.4318507484394937 0.2006754319754272 1.1444373118732825 134 135 137
-0.7893836912665426 0.1763139829329837 1.1298827318089952 161 166 169
-0.4862288298573718 -0.1472764349260162 1.6981081980770185 206 206 206
-0.8821748650092804 0.2256424368016637 1.1235925044900998 176 174 177
0.3773166682795628 0.1966293453483916 1.1651183933389655 155 148 140
-0.6291501157772140 0.1841049350910494 1.1334802089431633 84 84 84
0.1291067099376743 0.0016608561516204 1.7607174341955882 170 115 85
-0.9035974801740350 0.2273819009447301 1.1194633081497569 148 157 166
-0.7845164938226200 0.1732430372451751 1.1266334899322676 93 97 100
-0.4774349357478735 -0.1476221547680003 1.7006262598694735 218 222 223
0.0189370329364200 0.2204038159708687 1.1537194049174031 196 196 196
-0.1143546697947921 0.2144052090617442 1.1485529672448860 193 192 190
-0.9000617888093335 0.2291921506460906 1.1174860354637304 215 222 230
-0.8873545917119883 0.2287632939658039 1.1184065340565665 228 234 234
0.1426858727307967 0.2235086532231059 1.1551206524292574 194 194 202
-0.9238314325529315 0.2289388974231120 1.1143583699121677 216 217 212
-0.0460997970053783 0.2133744307067560 1.1484089952546539 154 152 153
0.0079407352526568 0.2129068266387504 1.1491470078122734 193 193 193
-0.3240534043703137 -0.0046298641176425 1.7374756231885982 167 116 85
-0.3138675493798271 0.1935369439172101 1.1365256389495377 114 110 107
-0.4302939496649011 0.1836488488764312 1.1303403808237680 153 155 154
0.2921109699210192 0.2203922928341006 1.1510542262714578 182 183 185
-0.6710139473748615 0.1669793259122539 1.1208143135670183 147 144 135
-0.0084268608881223 0.2058114986146539 1.1428718530446096 112 103 94
-0.8764978493573580 0.2373724868868769 1.1081327977734923 215 226 232
-0.6159080521494800 -0.1756147575820529 1.6646498535955105 214 214 216
-0.0566378868958779 0.2006657479029625 1.1407394011247003 192 192 194
0.2302973088431019 0.2126110053033008 1.1467626676425522 164 164 162
-0.5467173024602052 0.1725062572678917 1.1223520384361554 176 179 184
-0.4093790605167282 0.1820340165156173 1.1277623937425525 153 154 158
0.3190554644233689 0.2184349792168946 1.1478337615925254 90 85 79
0.3089388101669314 0.2126672407211914 1.1444735730631477 76 71 52
0.1078026843682428 0.2026378933672499 1.1393838208373455 197 198 203
-0.5743544074694092 0.1674317204863734 1.1170863479460111 109 113 116
-0.7307861168842417 0.1542361385969426 1.1094697727889431 107 108 112
-0.6685505013461212 0.1561446587886854 1.1123189978844894 182 178 167
-0.5964847359299101 -0.1642476467151269 1.6525058693833019 226 226 226
-0.6761653159242470 0.1569480303699177 1.1111377698356373 82 81 79
0.2624584881206982 -0.2250169613454565 1.8520873000083213 208 216 229
-0.2138535412022132 0.1842263990088266 1.1272934571638140 185 193 196
0.3562805065098515 0.1693194292291016 1.1418963478225257 32 27 21
0.0997591018216953 0.0251345992092031 1.7217759587222390 104 48 21
-0.3524750224895837 0.1711663266006473 1.1189286850513620 183 174 165
0.0686637328444637 0.0310575071787698 1.7175792999723538 189 128 99
0.2061422592560452 0.1934277468934081 1.1317912956136456 192 199 205
-0.4513793035306701 0.1581450230041638 1.1077361545814877 97 98 102
0.3088842070906230 0.1910581799370152 1.1296085368832991 156 156 164
-0.0332053421476820 0.1765210443551039 1.1207559416774955 173 173 175
0.2890336997790944 0.1906411452375836 1.1285449536434391 113 110 105
-0.4443483287972079 0.1562247139590510 1.1070374921311201 160 161 163
0.0647548822780331 0.1802992170896182 1.1224443596579339 185 184 182
0.3417495527582197 0.1582390606653519 1.1289252578144227 158 157 155
-0.6127807025347236 -0.1503087293239189 1.6310014797937862 169 168 166
-0.2821787325577833 0.1605157070490550 1.1106735256970874 156 157 162
-0.0393908337346619 0.1717523452957906 1.1167776067298689 199 200 205
0.0599819192765235 0.1745727887042287 1.1200211881438824 144 140 139
-0.4684622830238262 -0.0383347850239134 1.6678033588240484 157 153 152
-0.5393209872190393 0.1436772167598090 1.0999619441564437 164 168 171
0.3832586446174966 0.1490436012294359 1.1280587765184191 116 110 98
0.3384227377478243 0.1572362213047570 1.1257402767809370 34 31 22
-0.5616261583474736 0.1429474996441525 1.0962114535605356 168 172 175
-0.1467677761907999 0.1639351940686872 1.1115484133226925 132 130 131
0.3602014995667098 0.1488592642148905 1.1259545983966679 43 39 28
-0.9039459871264597 0.2630186416258086 1.0749732484643544 134 124 125
-0.6696954695036488 0.1382340773492085 1.0908551206519079 104 105 107
-0.2466615955738699 0.1568555978830347 1.1067734467469448 195 195 197
-0.8791022800454255 0.2636625100030613 1.0732306616709621 158 158 160
-0.5061851667255154 0.1423429460145590 1.0948215639316650 86 85 90
-0.4168499310404132 -0.0085437842244462 1.6801652572941963 146 136 127
0.0477712969269151 0.1666232843571247 1.1126266443651576 178 181 188
-0.5771143608975604 -0.1393793217129987 1.6191715793533361 214 209 203
-0.8824853616736368 0.2658961963628882 1.0691556137174596 200 204 205
-0.3643176488138655 0.1490306770141172 1.0951083636711640 137 138 140
-0.4559360697072845 -0.0134767801629029 1.6709080977247974 179 176 169
0.2924649015244786 0.1692049849444234 1.1142219162961835 193 192 197
0.2649417858244519 0.1677326562844938 1.1121158781548510 191 189 190
0.3866773340729232 0.1347371875955083 1.1141754094250571 34 31 24
-0.0945761370868129 0.1553007995226528 1.1001630831054443 141 141 143
-0.6291358449548734 -0.1426314854825861 1.6215372488586810 174 162 140
-0.7185255431994965 0.1146541008376758 1.0779688967031675 134 139 142
0.1305776579495463 0.1631657963779960 1.1045545271864599 129 122 116
-0.1990350658648967 0.0612316261475534 1.6619283466224828 164 114 89
-0.5038888495569962 -0.0823485321574836 1.6119866425975307 201 200 196
-0.9545903589147208 0.2797789826015499 1.0512464838625106 213 214 216
-0.6878666714744172 0.1302182890713153 1.0715482759047097 111 112 116
-0.4342213221438445 0.0179415314631513 1.6466453700880357 178 174 171
-0.4282926341810753 0.1604060674047717 1.0770116287824372 218 219 223
-0.3982554609350130 0.0543612422718807 1.6353538866409918 147 97 70
0.3893139714413261 -0.2257019768215173 1.5754699789520923 155 153 156
-0.6224274040330084 0.1565290290876820 1.0683860842526791 211 208 201
-0.6865524901233628 -0.1232822008442632 1.5714431205454622 113 106 100
-0.5479298443287249 0.1608875125747251 1.0691000870478939 213 217 220
-0.3816851252565977 0.0704396389820525 1.6282756832019285 152 104 81
-0.5365635793573739 0.1610948574830522 1.0675461095111933 215 215 213
-0.5523459042213991 -0.0807226032252297 1.5964086671004052 176 176 174
-0.7083525009632556 0.1482925092553129 1.0554989254825986 143 143 143
-0.6654931553277790 0.1641910588942925 1.0569218487662990 171 168 161
-0.1257848220779738 0.0735099457578768 1.6445451588766815 119 64 34
-0.1305182206022445 0.0674265444175547 1.6387245153496193 179 126 94
-0.2946833064805698 0.0698971328392488 1.6357226211698557 178 131 105
-0.9260900008273684 0.2975483698218678 1.0271585682050068 207 209 208
0.2524821491920266 0.1901832036690065 1.0768031749060507 237 237 235
-0.5905064435197825 -0.2348815761259601 1.7441090337927376 216 224 227
-0.6824936127711807 0.1532940386649573 1.0453048888676988 176 173 166
0.3871252271819199 -0.2110496133963288 1.5610359199638424 75 71 72
-0.1498149308921577 0.1819591067928809 1.0603196264191377 228 227 225
-0.5071735426175313 -0.0588748595399747 1.5798179494173936 193 188 184
0.2344687659937159 0.1934049914728589 1.0670704512006421 244 244 244
-0.7161436354244077 0.1199946770624815 1.0367914755498533 137 139 138
-0.4421809495495668 0.0546646610341220 1.5980584808021521 151 141 131
-0.4465674942816300 0.0579433753175986 1.5932351647198191 175 163 151
0.2769452944693226 0.1136652960579683 1.6198319679849318 171 111 77
-0.0979689639412721 -0.0292309048170988 1.7948373600746528 171 120 93
-0.5749350787098867 -0.0811748622553218 1.5478726732139141 156 150 136
-0.5337570827878846 -0.0404042871134501 1.5556008874011904 199 204 207
-0.4810923388819001 0.0428451590255663 1.5643402472776227 153 145 142
-0.4824352697879120 -0.0037840251508023 1.5524147840784588 156 147 138
-0.3381555691258715 -0.0622655204326266 1.7583682453125729 216 217 219
-0.1038119966626501 0.1324059655062432 1.5844095880978151 178 123 92
-0.6132169638296255 -0.0686577873628578 1.5260010160154278 196 196 196
-0.0040814184897845 0.1375425073080555 1.5823268727490716 166 111 80
-0.0228490190031057 0.1442381190135496 1.5760124873903483 162 109 77
0.2618040714962283 0.1507913398093333 1.5760904788106143 190 135 104
-0.0981376846093694 0.1511470892119695 1.5606678563667598 175 120 89
-0.5951285533867299 -0.0487669093814501 1.5000927360379386 227 221 209
0.0660233726363357 0.1572611916393390 1.5577289448893707 108 53 22
0.1353202322494048 0.0095275632911998 1.7544611487606112 162 106 73
-0.3833859482097370 0.1173359354948117 1.5294307687640050 127 114 106
-0.0375918927336484 0.0080401336501172 1.7405303685591906 164 110 82
-0.4444696161644999 0.1135035416068279 1.4883634118296052 137 124 115
-0.5001042937211274 0.0326768885164452 1.4607456577945273 175 188 194
0.1891774877450920 0.0462189725430941 1.7094449961678901 138 90 67
-0.6744396551155837 -0.0087798823446351 1.4373539178296011 146 137 128
-0.5603828663403954 -0.1417362846052435 1.6242156994117902 228 230 229
-0.6978198444456096 -0.0108160346451121 1.4344562659707338 95 92 87
0.1352671855623639 0.2145334661089296 1.4923999546599587 179 120 88
0.1011163950541848 0.2125416513137037 1.4884946341143384 102 51 22
-0.4394202924474121 0.0978747639139406 1.4474389383432127 151 150 146
0.1880196457120860 0.2312446852316116 1.4646920320842327 168 112 77
0.2937206065067580 0.2334489689398994 1.4667145208059884 170 114 81
-0.4521325262692962 0.0716230458400904 1.4228222529438859 170 167 160
-0.0381067382392384 0.2280678776151586 1.4548899739150689 43 42 47
-0.4165517976291955 0.1301523192237413 1.4303757088401190 151 147 146
0.2904970043442812 0.2413146110935166 1.4606827735009542 156 102 66
-0.2036737118878514 0.2316049893670333 1.4414371633025105 99 53 29
-0.2444276995184472 0.2014749079546201 1.4303173875069766 139 126 120
-0.1904031988853113 0.2266150582899639 1.4338156576720584 75 41 29
-0.4320648462273978 0.0914001549402030 1.4061052829777720 137 118 103
-0.3947409971658509 0.0638326846608913 1.6395544491944534 52 17 0
-0.5364602372694042 0.0496145030649539 1.3911589262693631 169 165 162
0.2980953848690407 0.0826687616418622 1.6567065763277145 105 55 30
-0.1439031170483684 0.0572430441023819 1.6386589246028942 175 118 88
-0.3869455616236301 0.1358010790075160 1.3917770560607747 176 177 179
0.3869663176216860 -0.2150073893868554 1.5659983202473753 70 66 67
0.0848777980599500 0.2216021415300523 1.4143842599468859 210 217 227
-0.3940493474125421 0.0727783452878788 1.6185906309313878 111 69 45
-0.6396549704004493 -0.1021854474426942 1.5675917711021714 214 216 215
-0.5944822614096918 -0.0943021592819162 1.5599465306193909 191 182 167
-0.0126402587563983 0.2333592253710360 1.3935439284759872 161 160 166
-0.3389199661302466 0.1897781314096719 1.3756645988103482 186 187 191
0.1017101807785976 0.1159200714936355 1.6075670063395973 106 57 27
0.3495550900055371 0.2126316752755154 1.3687801390720853 207 206 204
-0.1712981176526331 0.2401149071384445 1.3559363116738947 210 206 205
-0.2887901132354869 0.1928741737968745 1.3442885231230406 175 173 174
0.2287802680168657 0.2516310474997134 1.3634488956310613 192 187 183
-0.2297794957367753 0.2260921917074128 1.3457863291102519 209 216 226
-0.4023850198145922 0.1426948881776562 1.3257960802775326 228 232 235
0.2328716193570901 0.2493342549549194 1.3514600184335304 210 208 211
-0.3415535165975715 0.1421679669106919 1.5452834469965244 169 118 89
0.3854520296611866 -0.0358811344987450 1.3310584493331206 68 66 67
0.3934633735722555 -0.1915711194840927 1.4887840665030088 172 170 173
-0.3709408375226447 0.1529897216190866 1.3140526423413732 218 229 235
0.3004121914179257 0.2361092126792707 1.3383344747227324 124 119 116
0.0912593478324320 0.2288517285772184 1.3313059951661503 151 147 146
0.0802181202372742 0.2278509543450905 1.3291426886686080 155 151 150
-0.0955151601158722 0.1784226890427257 1.5260631281214099 173 119 91
0.1283333447422663 0.2104120771554225 1.3148837682893015 143 134 129
0.0161211743949270 0.2039281868181886 1.3092556370830901 207 207 207
-0.0751249868564017 0.1999275152395277 1.3060448286837454 187 185 186
0.0283427821947841 0.2035157629667394 1.3058050985530445 220 216 215
-0.6597488362696801 -0.0196789193832543 1.4591825895988204 200 200 198
0.1658632901102581 0.1974331622394096 1.5050143598278705 179 128 101
-0.4738873799537351 0.0480223290088621 1.4516017446763767 185 185 183
0.0787563075245821 0.2079787388909954 1.4872084716120821 176 125 98
-0.4355119993954372 0.1490271983007955 1.2532502813302047 236 241 244
-0.4193599060461213 0.1371392062220229 1.4451684325504683 139 130 121
-0.1414264107690157 0.2238051587612686 1.4544400127666255 47 48 53
-0.6851849198419491 0.0032935891538908 1.4047087673788621 163 163 163
-0.2298303326609813 0.2210276463841685 1.4374074785449118 152 142 140
0.2147134631991001 0.2413719667799483 1.4417883518904686 147 143 142
-0.2084182032417808 0.2112179438326156 1.4244295128242019 152 144 141
-0.3797033749232193 0.1711939417265256 1.4104227057870402 128 119 114
-0.0671955714970866 0.2153407125973051 1.4155212613684183 223 223 225
0.1344442460371659 0.2259287261490994 1.4090978441069555 201 197 194
-0.6428847034823157 0.0549254706718768 1.3653915347049899 207 208 203
-0.3363090903779068 0.1948421269522066 1.3832838772571241 160 145 138
0.2008181498423501 0.2498248500108805 1.3845259306544546 181 171 161
-0.2597764621196374 0.2072447696031278 1.3398394474445356 144 134 125
-0.3624225066874363 0.1463022147121941 1.3234550407048520 224 229 232
-0.1906400052273851 0.2129327715801428 1.3240665987871660 183 183 191
0.2656610916403936 0.2170095317374732 1.3235467559404879 202 201 206
0.2779171464210326 0.2140173447485100 1.3220862949118914 206 205 210
0.2169241694498439 0.2131410249901381 1.3181886031996375 209 204 201
0.0708244773500214 0.2042219016438101 1.3047255535998556 225 225 227
-0.4279367604326761 0.1474682906986813 1.2867431266737188 185 183 184
-0.6115944020646660 0.1308539670559682 1.2667144444679574 186 191 195
0.0418692295259776 0.2036697789131582 1.2785958396455082 240 245 251
0.0933348899411804 0.2033489469763008 1.2791950477883482 214 213 211
-0.0643986950890496 0.2021707894223175 1.2737902277928190 223 222 220
-0.5693733543885459 0.1532755813128357 1.2402967821488091 216 221 225
-0.4688308965315545 0.1608781976826327 1.2371569045012427 228 229 231
