ply
format ascii 1.0
element vertex 689
property double x
property double y
property double z
property uchar red
property uchar green
property uchar blue
end_header
-0.5140370378173081 0.0916585805481358 1.8797925040947399 212 221 228
-0.0995969634742504 0.1748016667876161 2.1892193521001428 85 82 77
-0.2432352577384653 0.2162059742269209 1.8661227610248994 91 87 86
-0.4648341318824389 0.1076900790634079 2.2095243134747617 140 145 105
-0.1298108314392652 0.1633439493494948 2.1639920766347678 199 200 168
-0.3853815188740017 0.1113940640456347 2.2379377772989240 177 186 167
-0.0599291502282697 0.1878392528949775 2.2612850009632646 211 210 192
-0.4553703638481876 0.1070808162719676 2.2278838557128471 141 143 138
-0.5320869582497877 0.0800753341519406 1.8738173088121477 115 118 109
-0.0549368269389968 0.1909980029679369 2.2912660948548367 112 110 115
-0.0537792714508341 0.1912441834055028 2.3006532743673667 204 205 173
-0.5752866554683453 0.0523782405200352 2.0599253273799700 164 169 165
0.0504507912178849 0.2740134078892907 2.1709827171434930 214 217 198
0.0458280733382642 0.2678716106044066 2.1473293861819878 116 114 115
-0.4653141155365804 0.0985029312327706 2.2316495191737378 183 188 184
-0.3465070261005362 0.1098109348641071 2.2795410446140907 155 162 155
-0.5184788845494563 0.0841086027836506 2.1849263548076583 151 152 154
-0.0398157213039287 0.1867393864779688 2.3172186867776410 201 206 186
-0.0626117767664832 0.1837024798177448 2.3088016164965399 106 105 101
-0.0638780029582783 0.1824738248620378 2.3072325571744932 210 224 175
-0.4348505909976378 0.1014187393108479 2.2569804204256241 121 126 130
0.1225178166282323 0.2865225888959445 2.2368261367469113 215 218 191
0.1672303877373252 0.2922950756008941 2.2572663553049805 72 70 71
-0.0732027891164945 0.1781804744151616 2.3038338184573286 222 225 198
-0.5565651749690195 0.0632398614621956 1.8811440734124174 152 150 138
-0.4305750284330813 0.1119418053386319 2.0708386438403634 94 99 118
0.0347282537753638 0.2598258756512255 2.1446671957256349 95 87 85
-0.5553353227666429 0.0620641693232295 1.8970217006933088 120 116 115
-0.0751100670627520 0.1745599256402799 2.3108034224430489 230 228 215
0.1169797055360926 0.2788056476059191 2.2297503152523532 170 179 150
-0.4323714770471222 0.0948813306062237 2.2735328914378732 111 117 113
-0.0764614212739917 0.1688117186581523 2.3094383431395902 107 111 110
-0.4494175541708772 0.0916221629674630 2.2625048236578955 168 179 175
-0.4812472428412121 0.1236603765563916 1.6163095578715390 144 145 140
-0.0526263563041584 0.1735054015426796 2.3273496120178097 103 107 108
-0.0050294560109681 0.2450896796657568 2.1213627429587438 109 118 115
-0.4454183892400233 0.0906489750809316 2.2710107349992064 184 204 195
-0.4555241510092709 0.0884495478700502 2.2650362995654207 101 106 102
-0.4156991428780655 0.1570690540142566 1.7998130623696531 229 228 233
-0.4595958344267291 0.0883876564423557 2.2680005246528823 159 174 167
-0.5352724211872742 0.0669408203375939 2.1981731393963302 194 200 186
-0.5303949835590664 0.0774721673539099 2.0117932021537972 162 174 188
-0.0743381488393123 0.1606343567516724 2.3177777076299675 117 120 101
-0.5266137726670103 0.0683219112343943 2.2168517884444667 215 218 209
-0.0773143367939933 0.1592163371244003 2.3286865480065653 110 109 115
-0.4435949086038523 0.0865616483844710 2.2864669830135300 195 201 189
-0.4225830940099358 0.0881815127431244 2.2940245284532264 122 135 144
-0.5133790274378165 0.0719480038620560 2.2357901144906527 104 109 115
-0.5765978154512020 0.0500152200482154 2.1647754867513824 68 70 93
-0.2347575689505819 0.1355321053057883 2.2554598222246152 185 185 175
-0.5059255594267340 0.0821690545563185 2.0627018243039794 81 78 85
0.0218532957008177 0.2469242747516802 2.1845259051490951 91 94 99
-0.4748148358794715 0.0805175932309637 2.2712750210688468 161 169 154
-0.4350933382963534 0.0856528960295189 2.2922926032781881 198 218 217
-0.5388737713101136 0.0622942622659596 2.2115754794699698 114 118 101
-0.5273297654643003 0.0645387491836160 2.2240838506832801 205 206 200
-0.5122393433496963 0.0688234326041884 2.2473615885535025 232 225 215
-0.5578904532750969 0.0547537663327784 2.2039668425395900 177 183 179
-0.0751789208143451 0.2106081470746051 2.0797371256772599 135 129 131
-0.4605191678098067 0.0729573628252398 2.2869997762989094 116 120 132
-0.1760065990772319 0.1370039544842232 2.3074135702530119 110 109 115
-0.5314396881059564 0.0571829835611033 2.2357220591412514 224 225 209
-0.5745644330189268 0.0456472165058976 2.1993135457997797 102 109 115
-0.4909654957583279 0.0685331015087527 2.2801646347196418 223 225 224
-0.4935565448901129 0.0664141690090081 2.2797091474130413 226 228 227
-0.5220941954024958 0.0588805892531459 2.2596024040239540 118 121 126
-0.5551077454956629 0.0634804687233283 2.0713942798401748 119 125 121
-0.5690814604916583 0.0570220690235221 2.0547972230168314 145 147 133
-0.5003943986410413 0.0937964065273176 2.1797670283412338 215 220 198
-0.2659425318306472 0.1259663147271456 2.3005907166802317 202 209 191
-0.5522064243624778 0.0444851912322836 2.2287449804801081 216 218 213
0.1072702338802199 0.2526784401116290 2.2854291748349302 95 99 98
-0.3794511933021190 0.1106820055720574 2.2470912918701940 139 139 141
-0.5601616825852128 0.0431402221599206 2.2248008131342454 191 201 203
-0.4210221721244085 0.1070704501051688 2.2346267876212464 178 189 185
-0.5827206177708044 0.0526387693467036 2.0461324613773404 205 209 212
-0.3099436795306896 0.1647708538769457 1.9766613636693384 92 93 85
-0.5739898177761366 0.0542331832732744 2.0575373741044762 68 74 70
-0.4646814939189389 0.1026107458051685 2.2258606552799396 115 113 124
-0.5378312708194791 0.0531647553921802 2.2622721527526730 158 159 151
-0.4527910998928003 0.1036619902273323 2.2329255170223443 156 157 151
-0.2683368914385120 0.1226434984353159 2.3091641493297042 195 211 201
-0.5582362816618813 0.0402811549634131 2.2286326872088735 110 108 109
-0.0013112237227818 0.2252863861520835 2.2098756561123643 175 181 171
-0.3561648791815591 0.1100936453848567 2.2732028228495715 187 192 188
-0.3642152997339725 0.1067895395239692 2.2688568752854823 167 174 167
-0.0529402788331983 0.2069851750563752 2.1561169550544577 214 206 170
-0.4673811966104640 0.1225908991049963 1.8482018710955841 100 106 102
-0.4575864346471779 0.1250910628010406 1.8610492952990700 190 191 177
-0.5126967201704719 0.0827992814516097 2.1965645847664392 243 246 217
-0.0842779928143199 0.1945667887397781 2.1226256579891851 96 101 105
-0.5805892638217229 0.0542398623079007 2.1030493958587955 119 124 117
-0.5686698798378251 0.0571163083415734 2.1143439776791233 236 244 223
-0.0512819446553744 0.2039542081027053 2.1676577148402769 97 81 92
-0.2940275698198851 0.1128414306711361 2.3160357991042413 192 192 192
-0.4845764652625629 0.0883088527842149 2.2232337654512588 104 108 111
-0.3884532794448525 0.1032008417589989 2.2809626784926280 215 221 219
-0.5197044940286797 0.0795668473737467 2.1951553821203094 202 211 190
0.2390473465563424 0.4267659772607265 1.7790295420072944 154 157 148
-0.5156989926721364 0.0805059630470008 2.1996351840149488 148 147 143
-0.3282572880056613 0.1496218248517757 1.9843564068635600 96 91 95
-0.3916833704435628 0.1012144547689680 2.2828275535726021 199 208 205
-0.5037287339656028 0.0829810028245975 2.2217454500072438 107 110 117
-0.4836465661792951 0.0849118514466230 2.2299053275121210 106 105 121
-0.5119627674454226 0.0801603750184860 2.2158387013912848 186 191 185
-0.3460546853627504 0.1428319242104492 1.9855182706914674 94 96 91
0.2802030841728841 0.4292328739761859 1.8236678898347412 143 152 125
-0.4680596109623391 0.0905366522138218 2.2611589455944525 191 202 198
-0.5241301678704505 0.0735924541682586 2.2074755453628745 228 231 210
-0.0131157519122011 0.2112262250870233 2.2394810479358247 123 125 122
0.1780622279703188 0.2398810555135552 2.3364377279729536 168 175 167
-0.4940388416230675 0.1027238274394778 1.8883560892845872 101 104 109
-0.4806465474425590 0.1105528033265272 1.9204489694860647 209 218 213
-0.1183543978311094 0.1657211953653498 2.1816907771647380 93 93 91
-0.0531520916204896 0.1896839251817152 2.3060928443376172 127 119 116
-0.5410017303654888 0.0725368535785609 1.8947503105011954 94 104 106
-0.0837431431025422 0.1753276215824790 2.2806898293017062 168 167 163
-0.0868612214198112 0.1696556933300607 2.2755436041864052 144 149 143
-0.0491149050942052 0.1826230950481865 2.3221528337903621 125 127 113
-0.0295473169506503 0.1826300802376868 2.3250706828977421 174 177 148
-0.0869013637408009 0.1650111450292276 2.2922772035637116 199 196 189
-0.0821356734919955 0.1645692210336921 2.3060341865651930 111 114 119
-0.4619903987805075 0.0993328215149764 2.0754427196768250 136 144 147
-0.5857293806248699 0.0416066048261492 1.8842989517205959 138 139 131
-0.5400924855689728 0.0690229566893295 2.0346073191024074 180 192 190
-0.2421660644647395 0.1324781083522522 2.2796761882814836 123 126 117
-0.5161882265627070 0.0810738557275875 2.1965538352330412 228 227 209
-0.2298463861021475 0.1137427990578338 2.3271137046284629 175 182 164
0.5797226606019714 -4.5685330265048787 -4.6487230308017127 148 176 117
-0.4919393203989194 0.0781553132282362 2.2259109152247429 79 83 56
-0.5147603784317560 0.0766139946692182 2.2187711446544243 155 165 154
-0.5827386763080882 0.0521661878816801 2.1559670842991259 223 226 219
-0.5672243547902835 0.0588561097258101 2.1816129246075238 124 133 130
-0.5330701042645288 0.0657725344184610 2.2082905762845519 175 178 171
-0.4844261225266409 0.0773192722698684 2.2736015168533834 150 150 142
-0.4884130310940611 0.0723120136587583 2.2619661281858447 78 78 88
-0.5671125319108972 0.0526449049406639 2.1979187855237852 105 118 124
-0.5568096898775162 0.0527682830896451 2.2087445087742723 202 202 210
-0.5320829232116759 0.0579603189762078 2.2316022863789846 165 175 166
-0.5483025285030555 0.0526557518667786 2.2186738143698701 112 127 134
-0.5347744557697872 0.0558391941738149 2.2321110352576099 239 242 231
-0.5053434217727770 0.0655046250641563 2.2659314711429865 154 155 157
-0.5111522209641124 0.0629717144022378 2.2634005368646264 102 102 92
-0.5276890130273095 0.0601114157883227 2.2548320771948540 131 138 144
0.4646153276497601 -4.9642709389843249 -4.6476572294713723 214 225 193
-0.5447511838892619 0.0512134919713287 2.2333758961760868 133 136 141
-0.5019880298465876 0.0625185319317025 2.2729448234014189 115 121 121
-0.5073702783193265 0.0602461177310332 2.2690452408779382 160 163 152
-0.5043317102716770 0.0563884372927638 2.2772196198107455 122 128 124
0.7710706311683594 -3.9296608441908076 -4.3683335040553395 86 120 34
0.7187255271689692 -4.0756188186404296 -4.5111070017944908 96 135 46
0.5177997799985266 -4.4684035444291288 -5.0004746020338873 99 137 52
0.7609241846124254 -4.1953181573399263 -4.2176032792216809 122 138 91
0.7268492470870611 -4.4493076612748927 -4.1236301326629681 110 133 91
-0.2080202364861524 0.1314570371009198 2.2979149677718702 102 107 103
-0.0660581153739921 0.1422906696743872 2.3447123553752789 156 159 164
-0.3795168718831983 0.1110350119325252 2.2424719966068105 172 182 174
0.7788087750530706 -4.0050565675053260 -4.2906282678918677 107 128 72
-0.1452680601646048 0.1291813078863820 2.3321612036619483 119 119 119
0.7555664816175746 -4.1256487856618644 -4.2093090927947703 101 119 93
0.7426545351774739 -4.2171037163945195 -4.1581039833421034 117 124 90
0.2277039464256008 0.4230000263196173 1.7718457754523596 96 106 79
-0.5333984278430348 0.0741240164543738 2.1818013129368019 190 187 178
-0.4780198144716166 0.0886042352091912 2.2374784188740011 146 151 155
-0.4810121834049061 0.0857364388642153 2.2363747805624192 228 229 223
-0.5935768169184981 0.0465379731366368 2.1229713334454079 111 114 105
-0.3464704135808017 0.0956741540261261 2.3059573076624855 118 120 115
-0.4127266967529468 0.0918838491300297 2.2949490041923948 126 128 125
-0.5875085163297951 0.0480229473047255 2.1583034999234632 122 125 116
-0.5290202547406038 0.0607049870768974 2.2285924580529484 220 226 224
-0.4960390714363461 0.0659382083782497 2.2776425054875831 130 135 141
-0.5479838814763558 0.0493961760394439 2.2304933318387374 212 214 213
0.1809136965656698 0.3856334119050783 1.9177430590804476 83 104 95
0.1088915110768830 0.3506934273345528 1.8558075312450391 108 109 104
0.1251233081782311 0.3581370209020113 1.9135898404946825 201 203 198
0.0940315420137116 0.3285535811204566 1.9643398021061582 100 97 108
0.1046848734807842 0.3217161367491895 2.0578732463805141 78 85 78
-0.2425022050350129 0.2389069044487170 1.7392935197411075 94 105 101
-0.1047007184199975 0.2516137894015261 1.8033343971281022 62 72 71
-0.2620175165165493 0.2247055751557837 1.7113107367599019 104 106 101
0.0073938464816957 0.3018010565627987 1.8415521346140233 254 242 226
-0.2630085699637389 0.2237194231008518 1.7277440582335588 190 187 180
-0.0244155979205738 0.2681737734151518 1.8967121460824932 149 136 128
-0.0010726968620799 0.2907109446224246 1.8286543246956846 76 77 71
0.0668881703139620 0.3108693286111553 1.9562783650422024 87 96 93
0.1279663531129865 0.3171217927204337 2.1492795564282607 161 162 157
0.0697558462113156 0.2985624659306551 2.1172554873778711 255 255 241
-0.4077623807152010 0.1807845090378879 1.6556687832008334 109 124 103
-0.2851596133404327 0.2084715895509023 1.7882080323311602 209 223 234
0.0579930455666234 0.2840040705758923 2.0907032425900689 81 89 78
0.1408684970458636 0.3233484754380500 2.1489244958828420 102 106 109
-0.3030489903021554 0.1981611839205416 1.7702905880124358 105 106 100
-0.2913126263974198 0.2031502608481905 1.8006916211549826 83 87 72
-0.3109677707540037 0.2076279874267128 1.7094518831605581 99 102 81
-0.3246777736507267 0.1895649510318336 1.7792866540990899 90 94 93
0.0501490557691203 0.2723697814999917 2.1375480049777598 221 209 157
-0.4542145072985909 0.1415909088977062 1.6165629437779943 223 219 210
0.0463561618016782 0.2691910334756804 2.1673671190107409 119 128 133
-0.4221903055109552 0.1588812944223503 1.7471059867721432 234 225 210
-0.4096842224165506 0.1720142324495877 1.6892641047841432 110 111 103
-0.0648263201705932 0.2296661449187513 2.0504893904734969 98 84 73
-0.4208156314206598 0.1644064538537618 1.6781495295328490 159 159 151
0.0016017130362423 0.3237466135077002 1.7349950092183031 59 79 68
-0.4443236814878683 0.1480856562389121 1.6248482984961974 225 217 214
0.1169961225359780 0.2692948204511729 2.2583892756422785 110 109 117
0.5738988484209587 -4.1533620703456195 -4.9914701898155078 86 111 43
-0.0260206312395075 0.2289069399579105 2.1161437500534670 91 96 102
0.7281296592632240 -4.0313851090392534 -4.4982596090849318 149 173 77
0.7445614127255616 -4.0084227796339453 -4.4419029082893910 95 121 47
0.0493259828776877 0.2685042262829372 2.1868408935848280 111 114 107
0.6697693649079345 -4.1237019000702313 -4.6723601261144196 175 184 103
-0.4355862732710992 0.1466239706191707 1.6971916312346051 232 222 213
0.5244810830426926 -4.4165707562324386 -5.0963944829338530 103 148 43
0.0119183254899429 0.2375480217948261 2.1975797745437902 169 167 154
-0.4637360094374481 0.1249556420467264 1.6459871169998961 86 92 90
-0.0795867509898770 0.2166363399924608 2.0174530550471985 104 106 103
0.1189277446562270 0.3334289764779655 2.0622446253451536 254 253 248
0.0566677637112253 0.2447565336312329 2.2537851940824658 162 165 154
-0.0189294864152517 0.2356398879230086 2.1227494851803987 123 128 124
0.7470862903918380 -4.2378260962700436 -4.2795996061867339 169 188 133
-0.0078485072258309 0.2255997057304652 2.1937463998332043 159 161 147
0.1154798710091618 0.2679044604313990 2.2506868665359105 159 158 138
-0.5316318844663042 0.0858986487914999 1.6579232130233352 111 103 84
0.7468311224625882 -4.2884122442786818 -4.1753079487946207 136 143 109
-0.0234893020301218 0.2280574388428668 2.1285270126680622 98 100 115
-0.0663525539699000 0.2162308918288253 2.0911435170697104 116 118 117
0.0464042113902478 0.2923813488911348 2.0076073136684034 93 93 101
0.1433020631373307 0.3212465907294552 2.1567097988346169 195 194 192
-0.0727864169820527 0.2081493220471958 2.0964680157484579 245 246 232
0.1984009671358063 0.2694401602764059 2.3138936804683183 163 169 141
-0.1101813844622455 0.1815619577534277 2.1084449912567491 159 155 146
0.7064040609937861 -4.4486234342183888 -4.1373810944503671 156 177 112
-0.0190425802945457 0.2119701987820560 2.2238020128147244 201 205 190
0.6684006511376912 -4.5796709076516287 -4.2163546508914749 98 128 58
-0.1259862304080673 0.1818049547324029 2.0622467083755769 121 126 122
-0.0398290474334778 0.2098457079529295 2.1803548798067163 193 187 153
-0.0393329001273171 0.2079757312215230 2.1852441013801434 115 124 103
-0.3250533609777345 0.1903996887717196 1.7602720958254932 170 155 134
-0.0050464127743775 0.2176297946537446 2.2275518865671406 193 196 167
0.4872988299022572 -4.9780656050347281 -4.6490878787500138 98 140 64
-0.0683853653530399 0.1792947547704944 2.3061844714283244 108 107 113
-0.0860993350140472 0.1709864960380959 2.2810197800271057 210 210 200
0.0378369593294405 0.2537819304722139 2.1872720461615272 109 104 108
-0.0963436354321934 0.1709903473983481 2.2139175066608625 83 89 85
-0.5575114414349280 0.0614088491452952 1.8964564110938269 123 128 124
-0.0904287960710157 0.1646675262524570 2.2803468462019989 109 108 114
-0.0768277977911637 0.1766375012932684 2.2437443426263877 111 117 117
-0.0864855572089437 0.1671460818870308 2.2880609271905508 224 221 216
-0.3874152425177598 0.1239218310264889 2.0693359809505307 98 98 100
-0.5511009796345763 0.0685807110452330 1.8638619467893769 134 137 142
-0.0856117065139542 0.2024704190141452 2.0861386717713093 169 173 172
-0.3769511632978446 0.1230519312994864 2.1098489581777464 188 190 176
-0.0770372209258699 0.1748484382683254 2.2990228070262164 215 226 196
-0.0849460914311515 0.1690334005013851 2.2971696079806621 204 204 192
-0.3136104858701211 0.1598380252910509 1.9811873369714847 95 102 84
-0.5801553226289652 0.0477203534564887 1.8741864023406776 99 101 100
0.5946511904316354 -5.1897801582495031 -4.1025359088837510 96 131 51
-0.1795813368941846 0.1426053897947038 2.2663304234091211 108 110 105
-0.3101661922698082 0.1070706189189988 2.3062870304962515 131 137 123
-0.3664880238579192 0.0946774189779587 2.2909176840789525 118 119 121
-0.4703386190002579 0.0879630618948353 2.2633119303992273 130 133 142
-0.4779889991586009 0.0861323873296840 2.2587164914352944 166 166 164
-0.4888726731571459 0.0746666341164278 2.2529444673602796 125 127 122
-0.0818651928984482 0.1709521525460980 2.3025310937101806 169 172 163
-0.0843291530738602 0.1659508441650924 2.2982124562574158 216 217 201
-0.4654269723454766 0.0982785494451035 2.0715065626403550 162 163 155
-0.1405971440465453 0.1319225343916594 2.3335547398647245 111 117 113
-0.4584791741614265 0.0964200074668764 2.2463376271709206 239 241 228
-0.5532412196667229 0.0544527466622409 2.2091186186939997 206 213 205
-0.4896779484792991 0.0704744355478490 2.2746461012069199 244 244 244
-0.4871849220088397 0.0726003660677145 2.2794116506303275 140 146 144
-0.5513640732877835 0.0513992946255351 2.2172906617488528 130 136 132
0.6466237326570575 -4.0743413454522521 -4.7108666040544174 105 133 49
0.6112336831984090 -4.4840128303844082 -4.6067658138459651 106 124 64
0.5606217087391111 -4.9417543279675638 -4.4084141105003098 49 78 11
0.5889687850215882 -5.1489314696621689 -4.2088683793908013 184 187 118
0.6374011950191605 -4.3517518997880291 -4.6750830290786531 169 174 107
-0.4399707286069098 0.0998128895954249 2.2407856102079542 85 99 74
0.0775883650500710 0.3100896639947868 2.0334509572083390 230 223 205
0.1189581394495056 0.3252474149543683 2.1077621458194562 96 102 100
-0.2456890103667931 0.2078929578695179 1.8846553115753466 189 182 164
-0.4655987805054922 0.1370330166522903 1.6146252066563966 117 120 111
-0.3360591681289470 0.1842837602774603 1.7696474947433327 93 86 70
0.0131451914769210 0.2287090531965421 2.2256426571072629 102 104 101
0.0944645626095871 0.2305933519851614 2.3158623045078284 88 88 80
-0.1314971453729207 0.1681493753348748 2.1344944992491208 99 110 106
0.5991199721842997 -4.7300287177520577 -4.5494447105540043 93 123 51
-0.0025020196363315 0.2701204112115758 1.9989276309698365 158 155 148
-0.1383522363771122 0.1492431606378535 2.3198810638867973 151 155 140
-0.1676397699953651 0.1883319393203945 1.9580115988584961 149 164 183
-0.4608064779435053 0.0839741053838452 2.2729184556695055 126 131 125
-0.4771485527840211 0.0936747569797596 2.0714858281721242 107 107 105
-0.1268712757267357 0.1287575571549301 2.3397415393712699 167 168 172
-0.5199606068951280 0.0806889819334775 2.1901623333274816 176 182 168
-0.4767318821447231 0.0796953995837088 2.2724167765848255 141 145 128
-0.4947227273345202 0.0709029255870985 2.2647565531902423 186 193 186
0.7704049584022509 -3.9599917852725817 -4.3643591997432090 105 146 54
0.5858763830294740 -4.8710774627938997 -4.2107980682285051 131 152 75
-0.4828557474070549 0.0711653406609443 2.2814509457756746 127 132 112
0.0089591867911257 0.2472449763294211 2.1388830339106559 99 94 101
0.6588915925164257 -4.9705868339531856 -4.1792914528918592 121 145 93
-0.0965124145207928 0.2065442657456765 2.0334179680066633 130 131 125
-0.3657712325115122 0.1272907417190132 2.1026661096827284 247 247 247
-0.2491724922445527 0.2495816072362891 1.6790252793295286 105 106 101
-0.5506607907116361 0.0695295837509069 2.0045789059737413 211 214 185
-0.2103014656389562 0.1382526038753784 2.1308290274633386 106 105 110
0.2006107772414895 0.3939813753688872 1.9169378649572160 222 225 214
-0.2872672250417879 0.1351990058643248 2.1230960218151442 181 196 191
0.0181876916041614 0.2190674253477280 2.2692806830328074 113 125 105
-0.3955017705039103 0.1170498104396359 2.0903518715714924 99 91 112
-0.4450728620143999 0.1060148571346835 2.0714817882589416 197 197 189
-0.1354970793106040 0.1576536951884470 2.1714931176219445 102 103 107
-0.5341334398247790 0.0756085003610958 2.0257222358095230 237 236 216
0.0739579255294460 0.2280607592211010 2.2963107110846122 124 140 104
-0.3649665056408108 0.1256052434202543 2.1145879565302046 80 81 76
-0.1194926395998941 0.1645768694047824 2.1899834235855411 108 113 107
0.0852860099379422 0.3415086368587685 1.8504961821218202 83 84 70
-0.5977903238957679 0.0453508923303944 1.9811341688384252 224 227 210
0.2641124979593125 0.4481858274892991 1.7323596974479663 96 95 77
-0.3384799418969066 0.2097762160699067 1.6343958890878438 230 225 196
-0.3209636111388544 0.1299887269782764 2.1297130742550272 170 172 158
-0.3262298017486019 0.2141774733453783 1.6411193051183528 247 234 217
0.1092394873626104 0.3497050118832305 1.8717451479158984 101 101 99
-0.5131068572560005 0.0789417052603359 2.0427249456044612 102 102 102
0.0148314812578079 0.3141244124553397 1.8145778296154667 152 138 125
-0.1804382199011245 0.1445437862517376 2.1688234930447305 231 236 232
0.2361285068113596 0.4371826289255201 1.7356126321443208 168 177 160
-0.4911325861615636 0.0871155622274735 2.0636469108679178 106 107 101
-0.2863092646949470 0.1376420092730770 2.1549264786117841 245 250 244
-0.3149064412922956 0.1297255249182881 2.1413134280081749 99 108 113
-0.1256847289521112 0.2702702172039962 1.7602444521999230 90 103 96
-0.2014672143963546 0.1388883245076166 2.1645618406279996 164 168 154
-0.1256973938028591 0.1580986248656822 2.1991628446850942 206 211 179
-0.5854888163623602 0.0526183433334890 2.0104976108711905 226 226 218
-0.5491290991347055 0.0670299808868897 2.0348464298320641 237 232 210
-0.1784690518235370 0.1446028418252066 2.1781590118345577 128 133 127
0.2041535133621749 0.3822866145802378 1.9538004947606318 128 122 124
-0.4682705195163354 0.0945523529813177 2.0846428546658733 171 177 167
-0.2575481166152820 0.2316443874613670 1.7069894664252838 204 200 191
-0.4803202885118421 0.0905424293433201 2.0787251359356946 105 113 102
-0.0968732793429589 0.1676919895839812 2.2225275848214219 170 180 156
-0.0671763635606424 0.1824589362064944 2.2457630553218544 110 116 112
-0.5326584437833034 0.0701567903965834 2.0458090159033464 77 81 84
-0.0583539203774499 0.1896436267332346 2.2582608155304862 153 158 154
0.0234421233183478 0.3130994120308190 1.8442154945150189 108 106 111
-0.5134399062180302 0.0798990614372644 2.0636178441815742 234 231 216
-0.3944073399493662 0.1888065442835695 1.6388766882301928 217 208 201
0.2636602478733061 0.4400889802299935 1.7662842262081839 138 140 129
-0.5827902514911221 0.0541465385996471 2.0249011372698322 148 146 149
-0.0612225396531011 0.1863424426998326 2.2602092940118936 116 120 119
-0.4437501428625215 0.1012715999179921 2.1061352048790329 195 197 186
0.2072553353767364 0.3802310012536589 1.9695551677492020 187 187 189
-0.3132865973483736 0.1324450880999942 2.1655973073148509 174 176 171
-0.4307212022995309 0.1091580711702338 2.1234153215889204 243 248 251
-0.3054918568696700 0.1352580230383453 2.1722603619530370 194 198 165
0.1869045829283812 0.4033475117362795 1.7120415057915501 177 179 174
-0.5383690971920845 0.0681453587487706 2.0561408856982877 117 122 116
-0.5472938146417323 0.0666123904689664 2.0534907350692904 222 224 236
-0.2282380582869440 0.2421907897195624 1.7594460990293110 133 131 132
-0.3388352203595996 0.1264564237706558 2.1614853388089208 86 95 92
0.0248857725585023 0.3111494820105152 1.8701367975548022 108 98 97
-0.1922210250933353 0.1387679392889996 2.1956156246233478 133 128 124
-0.1339537339362429 0.1594794417427852 2.2305771558112935 126 127 129
0.1900467244065309 0.4049060008214737 1.7254365241755383 154 148 150
-0.0711128979078034 0.1817888928564665 2.2699177664010350 119 114 118
0.0032438353397379 0.2019689495927646 2.3063355696470658 173 179 165
-0.4536992531906116 0.0994686165249985 2.1196449385257048 152 160 149
-0.3876179491134581 0.1185246621313131 2.1538886721146868 98 106 108
-0.3259496685842024 0.1275636915090014 2.1729200542939657 185 193 169
0.1813924825943245 0.3972224605744489 1.7197447991890269 119 123 126
-0.5175904942644208 0.0757189878435311 2.0842518230775986 99 96 91
-0.4573479562598913 0.1466709847788885 1.6010899224610085 223 225 222
-0.5410159116501841 0.0668050171653821 2.0703710601186014 111 115 90
-0.3282594563553118 0.1263993054541453 2.1742236881426535 126 128 123
-0.1788268956102223 0.1440452998992249 2.2151955179028353 199 208 181
-0.3850035770570609 0.1189914554693632 2.1602276039052923 124 124 116
-0.1954697323633810 0.1410034862799014 2.2098043834369929 180 177 134
-0.0114419874563120 0.2837223747206693 1.8353673243773849 85 86 88
-0.2583061685793638 0.2296067189172692 1.7590687455375471 107 106 101
-0.3871059308335912 0.1181932689090261 2.1616981440144101 211 209 194
-0.0105942038011889 0.2838516897324044 1.8394363777304821 148 148 146
-0.4548394619715079 0.1465238702146345 1.6070292316895611 158 154 153
-0.0721677367082886 0.1818754779133663 2.2835812805552393 204 201 170
-0.3386659571948443 0.2007822013636117 1.7155284479554684 77 91 65
-0.2249170905884005 0.1389143297024050 2.2088201052099627 192 203 187
-0.2104128880975219 0.1398551359726349 2.2183442582512667 84 87 70
-0.4430874368345942 0.1488871820200631 1.6259447290739690 236 234 219
-0.1390742138614042 0.2474947752280583 1.8018770586077293 79 89 80
-0.4230840192566006 0.1649412597921443 1.6646137011524906 249 249 247
-0.5415236662416706 0.0677973418075971 2.0873248234668140 185 188 177
-0.1749798523710311 0.1473912239784831 2.2365154159620477 121 119 120
0.0974562424588938 0.3651742812593567 1.7039047203687303 216 217 211
-0.5159344805666380 0.0773251096069189 2.1054466905677911 128 133 136
-0.1254825253684627 0.1547011375586772 2.2538280325288258 117 118 102
-0.4378918567653197 0.1505735649481116 1.6433792911995637 255 255 253
-0.0784183157489975 0.1784158108768559 2.2925383018333982 99 87 97
-0.3718602327805045 0.1216232394430083 2.1832926680353948 208 214 188
-0.1153446742552986 0.1579364345174656 2.2618244706425510 134 139 116
-0.5689870523856488 0.0550537666465302 2.0724661776344746 94 95 99
-0.0648851742760352 0.1826873009618903 2.3023394552844190 181 185 162
-0.1288521713754520 0.1539907739855805 2.2609307246345720 213 217 200
-0.4438727539178565 0.1421165090306709 1.6409473830997112 147 148 150
-0.5523489500342849 0.0619864079322258 2.0901272275469447 159 165 165
-0.2872086084301287 0.1284373625658719 2.2098190591796549 82 86 89
-0.4194440138954893 0.1624490358055452 1.6870777039020299 93 94 86
0.0532102028214427 0.3099976463781240 1.9397931010285567 158 157 139
-0.5031921395674468 0.0879914157053579 2.1344736771934549 149 155 167
-0.2925601555610085 0.2024592015710281 1.7660211210259542 130 125 129
-0.5463466350512532 0.0663318690576785 2.1017954619977681 113 114 108
0.0551360536800629 0.1914507895897211 2.3398827304375005 97 111 78
-0.2839578627493006 0.2094745599985475 1.7830083965970103 246 249 254
-0.2047330710613804 0.1453615526039177 2.2485161506096980 94 97 80
-0.3841647171650522 0.1221358413317123 2.1979703189500150 133 133 135
-0.3932091756541192 0.1803109235950791 1.7386439851227313 121 120 115
-0.1216864365809891 0.1564722058428966 2.2780035637296976 218 225 192
-0.0702870718338694 0.1774290875677938 2.3120571806299131 95 101 99
-0.0556500313896406 0.3199740734821506 1.6915164865507528 215 208 180
-0.3873043962023363 0.1199672932388995 2.1988612234086702 112 108 109
-0.2888388955871850 0.1254382410432851 2.2171898098240410 93 99 71
-0.1140138893722288 0.1573466546044015 2.2819321352154729 187 187 177
-0.1041025498898019 0.2962880402060976 1.6532751052083015 97 95 108
-0.5030451182867055 0.0849263021007023 2.1416849466162220 85 98 115
-0.0450146197752967 0.1792433096276496 2.3262060898272900 173 183 159
-0.0422488757111574 0.2588650274126208 1.8730786242665642 96 96 88
-0.5957358290666596 0.0467632982093594 2.0857779438759652 219 223 222
0.1187306108038968 0.3668393658249274 1.7786915252445121 137 136 134
-0.5919087282936414 0.0492426589088471 2.0918394431618448 119 121 136
-0.4191233162113315 0.1607270684721471 1.7189436930123450 241 233 197
-0.5405760977626972 0.0657978556031747 2.1221603133055349 188 194 190
-0.4298351314912453 0.1155507111510943 2.2018962673990154 215 214 194
-0.2787095512415097 0.2084503201029101 1.8075088899266878 114 114 114
0.0280412359151003 0.1795398044985292 2.3460822524643326 180 186 176
-0.0907417186663571 0.3044609929659343 1.6949700856204422 146 148 127
-0.1302134283449880 0.1516546677111264 2.2906604172607548 137 139 134
-0.5508058242993327 0.0630405895186215 2.1233980597263069 105 104 120
0.1086753501055988 0.3626604810536380 1.7881350890479990 86 96 85
0.0166108778406564 0.1736827967612537 2.3407771511967037 198 207 180
-0.3421263788179582 0.1214016074194432 2.2274883733806154 109 109 101
0.0391469643747938 0.2960761491723282 1.9568585173874373 93 95 94
0.2070304128599987 0.4020953376851409 1.8634938407049164 158 159 151
-0.4845240042342350 0.1008907047763172 2.1856907839285475 250 251 243
-0.0706393396419398 0.1653715717105616 2.3234177116197317 221 229 182
-0.2794116605846124 0.1238639052402773 2.2429093807873879 110 112 111
-0.0866470744653185 0.3027265676834111 1.7085173523385262 81 84 77
-0.1299692040042185 0.1509509095529165 2.2990217142506020 115 117 112
-0.4851243994585450 0.1008085196282438 2.1886126325755653 165 164 178
-0.4596423490782969 0.1105374050331425 2.2046509363698661 180 187 154
-0.1879016162413735 0.1408645591972340 2.2788555938624149 207 211 197
-0.1452961786875264 0.2302034353426748 1.8532513166492177 86 79 71
-0.1274035625377341 0.1521703871525892 2.3036097211558726 138 139 134
-0.1176237092287643 0.1543473285207488 2.3078096964880652 117 117 109
-0.4689687790585518 0.1071099242517626 2.2019033076865764 117 124 117
-0.3185381300620003 0.1913412416968198 1.7974951675888990 121 130 127
-0.4928009536935849 0.0973629949641790 2.1868943504491036 254 255 253
-0.4788371722157492 0.1042013136279628 2.1973553841721980 140 143 148
-0.4744576271984296 0.1056697860847621 2.1996796042747322 123 133 132
-0.2978738914381323 0.1967076577569228 1.8077097243717462 90 96 84
-0.1909264569352752 0.1385051955958479 2.2802379136991036 208 223 216
-0.2392788273388501 0.1358281752676298 2.2713211019509001 168 171 164
-0.4138471400381371 0.1641726859483847 1.7585099332455236 242 243 229
-0.4684257060465227 0.1313762178766636 1.6954683682660938 120 121 125
-0.0697916144715261 0.1625272798425918 2.3313774384025736 200 200 188
0.1543113092604134 0.3787957060934278 1.8519528616652987 191 193 182
0.0166147081982708 0.3284440194159275 1.7665916424561492 107 109 106
-0.4695256580309371 0.1067287574083795 2.2071733463448924 232 238 194
-0.5482680690359173 0.0674579806560286 2.1467303541300002 169 170 162
-0.5543051049572064 0.0653276995328215 2.1447851060544521 111 110 116
-0.2459873366110350 0.1335493591109305 2.2736772724510970 219 221 200
-0.4998582076821045 0.0933434343072110 2.1887546970806904 226 229 220
-0.5654422090623261 0.0619514702996388 2.1408070932170764 108 107 105
-0.0521880014866472 0.2514806031342842 1.9073291897550881 121 117 108
-0.5218110238962603 0.0833879546864299 2.1814673299273077 222 224 210
-0.2515405221313705 0.1318774243857933 2.2802393536642320 213 225 213
-0.4532955811913819 0.1355713588720122 1.7192316137915755 150 146 137
-0.4751422520355595 0.1257532667386884 1.7015650774021973 130 134 117
-0.5556873712311482 0.0654835119476158 2.1556105399755530 125 128 117
0.0024201795194220 0.3154326131588269 1.7698370810592174 110 115 121
-0.5825343013158535 0.0525114451748079 2.1363693616305257 120 126 122
-0.5086707212043119 0.0863306404325501 2.1913199965288861 216 222 194
-0.4686376326914864 0.1032550585994788 2.2183291933068108 216 221 217
-0.5041999017123211 0.0890528862699868 2.1963474638729559 126 135 140
-0.1277467389135054 0.2833133570452039 1.7289423358216909 124 124 126
-0.4041463809728943 0.1105291896291379 2.2371624856056509 150 162 162
-0.2457573259351687 0.2519865109711894 1.6830483314618836 102 111 108
-0.0548207494362706 0.2953871606294460 1.7493732730574376 153 150 133
-0.5111465854745159 0.0844889117373090 2.1949382603853529 108 108 120
0.1594173643570599 0.3784043259937044 1.8961090794285007 87 84 77
-0.1128720282262232 0.2845069857864108 1.7421692204139709 66 85 57
-0.4831485965750833 0.0927832376079229 2.2109953452799842 125 119 119
-0.1752818263268623 0.1389108461678989 2.3139282696318499 235 237 226
-0.5809260958886611 0.0536380876654985 2.1497445665190238 223 227 226
-0.2806108253413100 0.2309766907233866 1.6527142999322730 112 112 120
-0.2837619052618871 0.1953840459596191 1.8425429165810689 126 122 113
-0.2879491607006906 0.1927243445409182 1.8388961517731073 115 113 116
-0.4632286912113553 0.1021361879806796 2.2301991822232528 113 114 109
-0.3790706212847823 0.1100863985332459 2.2542196788297759 170 174 160
-0.3664899228455514 0.1112034616873239 2.2575335768459830 116 117 111
0.1575918839528299 0.3740035992723377 1.9040615901288189 185 191 189
0.0494970555481130 0.2923825771734432 2.0077948991061989 76 77 81
-0.3691963324069560 0.1100841829158463 2.2568468627020870 174 177 156
0.1372786325183943 0.3381451818501930 2.0893172768405348 100 94 104
-0.3515236375631576 0.1724797657251056 1.8109349511709705 89 97 86
0.2478145545704959 0.4340841220711401 1.7716517613718346 179 182 165
0.1065135119484551 0.3489914461542339 1.8667585288814414 101 100 82
0.2233910754103460 0.4245016482474926 1.7599961514543723 128 126 105
-0.0969934346692190 0.2251882579904535 1.8992071136734006 113 96 86
0.2354806395373888 0.3916449921078085 1.9440713733025810 156 142 129
-0.5614055123722521 0.0624456043407961 2.1781931812363449 112 121 102
-0.3726280883155658 0.1665956486731243 1.8110642506939367 84 80 79
0.0009677434377125 0.3045622346521359 1.8007012245521559 180 179 158
0.0901989686535653 0.3125292717012069 2.0589404214080282 114 109 113
-0.4191125866322847 0.1548820602031609 1.7986629635097497 100 99 105
-0.2346348793423881 0.2471708610511802 1.7242972900373941 117 122 118
0.0109375392581158 0.3091672225288252 1.8192306031314351 241 235 213
0.2464537611624344 0.3910451794413658 1.9533408698309176 189 193 178
-0.3893505491763622 0.1925154172959954 1.6270486416358398 251 239 239
-0.3668804640231603 0.1967338054035687 1.6326279388741969 197 199 188
0.1186356535186710 0.3826146848529478 1.6988225836232063 174 167 138
0.1875159172403135 0.4016671850200815 1.7248289810400435 226 225 205
-0.5731349155297333 0.0557794704392234 2.1784224374708243 216 218 207
-0.5023061549343366 0.1021755317632934 1.7021263748074864 238 241 224
-0.4956942404152526 0.1050288549966380 1.7079547465278380 210 210 202
-0.3808658646182281 0.1640444890455646 1.8181755094600671 129 131 130
-0.2525378832155959 0.2365884912201039 1.7090281472475553 114 121 105
0.0920516432065614 0.3126099336899625 2.0680603565796805 230 229 209
-0.1073543576902623 0.2719127999778742 1.7649857010255507 133 124 107
-0.1716033391968458 0.1257497638024959 2.3294342868433828 196 196 194
-0.2598647278173679 0.2306517868420775 1.7050749441422681 117 116 112
-0.0009558652291269 0.2987500703189342 1.8110961605574556 168 150 136
-0.3491659536373194 0.1083522327749738 2.2817671575999006 117 122 116
-0.4642027262724630 0.0946225768691669 2.2485387909999583 225 226 218
-0.4511792236741862 0.1423787148897368 1.7875304810252042 141 140 135
-0.5744568485338043 0.0530448813980756 2.1829982873881777 216 217 203
-0.4692095681229888 0.0916289625499726 2.2473623503132600 215 221 209
-0.3224405325407696 0.2078113070617335 1.6782634968338443 209 203 187
-0.3555565251670167 0.1962716591679501 1.6571866961822679 93 102 101
-0.5367123612779654 0.0635082085836704 2.2058694570068709 92 96 97
-0.5101343560363016 0.0767463717456548 2.2266125831242483 111 114 121
-0.4637366799745252 0.0943007231866179 2.2550537570107259 210 219 192
-0.2247904743895770 0.1149436058170190 2.3200442778686474 198 204 200
-0.5525031250934095 0.0772176947243350 1.6747792013149707 149 155 129
-0.4153705273070635 0.1707149253197913 1.6204600611965503 159 156 173
-0.4604374166451892 0.1349455325529474 1.7842751867299040 206 203 196
-0.2324649563424043 0.2415381835716780 1.7528409775401856 132 132 134
0.0054085134137457 0.2991826357874898 1.8405607651616500 153 145 134
-0.5312558382999816 0.0647994791226768 2.2152692091551263 225 231 203
-0.5178480897559683 0.0919958955509107 1.7056683656466891 226 230 207
0.1313345529168185 0.3254771507861713 2.1093994055894441 128 133 110
0.1080781614127823 0.3429920159820944 1.9300484912758169 198 197 192
0.0220030148677420 0.3081044147666411 1.8723729039537342 174 167 161
-0.5317902054302288 0.0832805075361447 1.6976437175725998 137 150 107
-0.3978849671757242 0.0984173413724168 2.2822992598392791 194 205 197
0.1020662989410736 0.3405438332635863 1.9283063111587815 107 105 108
-0.2496816029854658 0.2345632493524937 1.7594397955972367 112 114 101
-0.5378883398303085 0.0781519030363632 1.6913764584222957 210 200 199
-0.4194171944299611 0.1683242240083932 1.6411851499933212 212 212 184
-0.4136708040000047 0.1741775555715297 1.6574575559970994 229 230 225
-0.4922724537521155 0.1105644652463215 1.7529417930632338 134 135 129
-0.2683876029022403 0.2200614844923003 1.7387190945082314 120 119 117
-0.3923378499881290 0.1595177846209585 1.8437304410002919 108 119 111
-0.4093531153200509 0.1778928450542576 1.6672889701840816 247 248 240
-0.4340395922550585 0.1580946972903797 1.6317255731144622 138 140 129
0.0100928570358172 0.2989289620609861 1.8773121032381996 121 120 118
0.1453173315720228 0.3289776936486425 2.1341919671137886 88 86 87
-0.4492780679504403 0.1478710791202325 1.6156633034329770 131 132 134
-0.4110096238257302 0.1756925072023316 1.6729850372690276 217 212 206
-0.4045931935335131 0.1554412747713904 1.8447225215882030 95 100 103
-0.0485775948868169 0.2429368058130597 1.9904379937017052 232 223 208
0.0022604685633812 0.2903777180237885 1.8645371887436037 180 172 159
0.0575670645712555 0.3206776120859663 1.9212245599542652 113 102 108
-0.4336846837979999 0.0900570125873859 2.2855634299479877 190 203 196
-0.3760827154035398 0.1883528163455507 1.7101410351377921 153 150 141
-0.4220755272928752 0.1499709560445965 1.8427327734067926 222 215 197
-0.3660321157138987 0.1635667208325006 1.8671070394174696 119 126 118
-0.4126892560978593 0.1520487319192306 1.8486347757765882 123 125 122
-0.5275801591907858 0.0587947893764323 2.2374943215328398 139 139 139
-0.1390313464404719 0.2458095411733359 1.8079963229737803 83 88 81
0.0521987716729009 0.2836167255894932 2.0700518475384975 113 117 116
0.0090413108388610 0.2936141125676520 1.8901699156030736 235 233 210
0.1447074011403857 0.3251124112638136 2.1429523439732083 110 109 125
-0.1386672237260591 0.2443675659847668 1.8111459426804231 172 166 144
-0.1387215398910391 0.2444113151115139 1.8112182280858165 172 166 144
-0.4929532965959350 0.1076169727132509 1.7738946917220926 60 65 61
-0.5235845307506147 0.0634585872322935 2.2502087908831485 131 135 134
-0.4527970622470647 0.1383714791803610 1.6280226939223175 232 228 219
-0.4197715905902250 0.1646067207709092 1.6813527826662320 139 129 138
-0.4638038580172100 0.1305415157095862 1.8214741364797404 97 101 84
-0.2960083463741261 0.1778459166470571 1.9037300754225512 77 88 82
0.0004018812279308 0.2855154432197083 1.8836463783266941 196 198 174
-0.5330077838009459 0.0567663932494344 2.2458286697280627 171 170 175
0.1310191269507425 0.3476871002971205 1.9949099130142798 140 136 127
-0.5282895263824766 0.0610414690496253 2.2526543783443378 248 254 242
-0.4900884904025690 0.0687597145112879 2.2690059114604644 196 200 186
-0.1408433294088058 0.2417156245628143 1.8146257465872002 85 87 86
-0.4492638884549520 0.1347237734577072 1.8350057830760078 212 200 184
-0.5364765773972828 0.0555728252748807 2.2470014810082088 162 161 157
-0.5255236797154473 0.0858428631539802 1.7470341543773749 209 206 191
-0.5149572973815798 0.0641567171907137 2.2620114512145442 116 118 113
-0.5372474778579591 0.0756757923594501 1.7289246088402257 195 197 192
-0.2600839216072791 0.2232086650136038 1.7995392525742333 222 222 212
-0.1085629242117069 0.2421510064646640 1.8198653354057632 81 82 68
-0.0686771404688500 0.2554538006129426 1.8420910006813576 158 151 141
-0.4244757647717646 0.1578552730717434 1.6813842672862622 246 247 241
-0.0150322758257290 0.2777756503687616 1.8825499632427587 143 137 137
-0.2721781693134810 0.2173411643025870 1.7914321126575674 92 93 88
-0.4001990147240930 0.1525164991622194 1.8727350286063393 89 98 93
-0.5467673554459129 0.0470265557756187 2.2468005211557367 248 249 243
0.1074438140759546 0.3356399105241320 1.9954327050007827 234 232 209
-0.1383948125120265 0.1975363141094487 1.9488891841709397 83 89 75
-0.3639306880973363 0.1595317620313685 1.8898235203875713 172 173 155
-0.0832893222899259 0.2505084238132846 1.8474764707928217 169 159 149
0.0242430217654426 0.2979911057167563 1.9358151354045376 198 194 185
0.0659242360608208 0.2929134149340576 2.1177531601935367 241 232 203
-0.4339491539101560 0.1475905847650432 1.6779539145750917 152 156 157
0.0649990568742728 0.2864727858982154 2.1071264038447923 133 132 138
-0.0199702265525636 0.2500188347667989 2.0478948022195302 122 123 117
-0.4079404431310181 0.1494128716846144 1.8811364523190091 93 100 93
-0.3268750588468484 0.1704209026116946 1.9176046515982745 167 177 179
-0.3974628856158080 0.1767628062834001 1.7421717971110418 125 131 121
-0.3024930574905320 0.1955642008960632 1.7741716137257206 106 108 95
-0.0335065964034448 0.2655004077245302 1.8888699498990213 222 226 199
-0.4098858840125183 0.1686056602398540 1.7330010605903636 140 137 148
0.1309493710487467 0.3429804266996501 2.0265944992470435 141 145 122
0.0098154923724368 0.2617315849338789 2.0742279302188718 203 198 169
0.0341777808631587 0.2691997712768818 2.0889849077280735 176 179 162
-0.1225203435556268 0.2942661153532783 1.7061569845716449 175 165 153
-0.0387964768884933 0.2613805959677779 1.8848764574152452 129 117 117
0.0200473564341850 0.2919074385632188 1.9399449454424487 202 197 191
-0.4241017689209370 0.1407648744891751 1.8776451322282217 225 218 208
-0.4383717683306944 0.1445689445298247 1.6907113205747157 103 107 106
-0.3709163053986378 0.1540965300466298 1.9010798655290175 69 76 68
-0.0898339492225505 0.2181746307717118 2.0080547672374718 107 104 97
-0.1431865751962187 0.1955536819898619 1.9687941365410151 78 78 70
0.1859255518956349 0.3522185577040582 2.0453966153182201 120 129 124
-0.3883391437065706 0.1786715491967329 1.7617274054466308 226 212 201
-0.4091588603086484 0.1681958591090476 1.7453587697234356 239 237 222
-0.5028349550431687 0.1002799688493775 1.8110723972267850 151 151 143
0.0613286338409647 0.3032625164658890 1.9747154464904835 117 118 110
-0.1269713674351866 0.1977082669508447 1.9787703321486145 161 174 180
0.0703394607284090 0.2933537578028205 2.1426678566271851 79 88 83
0.0988853277383672 0.3268002325820037 2.0192968748291364 224 221 202
-0.2666191170117385 0.2129456902225259 1.8328430152153161 143 135 132
-0.0845511993321995 0.2170550599703259 2.0136582725632257 105 107 106
-0.4823688338740565 0.1139405762079880 1.6490032652673823 110 119 92
-0.1254940887034150 0.1990315088528731 1.9839218649863746 107 103 102
-0.4076670909441182 0.1690487854897887 1.7575850679969085 224 212 196
0.0605056305680263 0.3059470165947533 1.9847438142676039 255 255 251
-0.4732710753413650 0.1195514087274766 1.8529950189081577 187 178 173
-0.3137178132265163 0.1921148027256293 1.8038545191254962 182 182 172
-0.3925022048216933 0.1456487192745863 1.9077900915033528 124 129 133
0.0061717464297294 0.2557193596132094 2.0926308432942688 111 101 109
-0.0358398005889838 0.2589862714764596 1.9113309972803323 121 113 110
-0.4182723733403592 0.1611164409791458 1.7525010100368033 134 137 108
-0.5560947498207318 0.0693900257106722 1.7754597908041063 224 216 197
-0.4094676332994061 0.1662511099388365 1.7628454971983103 127 128 120
0.0525505106198860 0.2768966642239610 2.1313990973744796 174 179 156
-0.4565274444177631 0.1341831753823634 1.7024941192724834 88 92 75
-0.5046482900317958 0.0951007279092524 1.6288760423980464 207 189 185
-0.4156345582343847 0.1621637473849627 1.7605061077284145 143 146 139
0.1207656461069491 0.3339232389450346 2.0501559776401441 167 170 153
-0.4996259168340896 0.1004490915366509 1.6412411664146584 222 219 202
-0.5697165782407853 0.0607566518765578 1.7654952814254083 228 227 225
-0.4518577155292943 0.1357477676669298 1.7120785231132218 239 234 215
-0.3556161565745968 0.1759019011145448 1.7878632477003140 178 175 160
0.1205817726154681 0.3341827737904882 2.0550809724451780 237 238 224
-0.5471485532537521 0.0716538361257905 1.7901913870478832 127 132 136
-0.4284542530578833 0.1348777296257752 1.9031175599852190 240 229 211
-0.2812459069483559 0.1990057455652034 1.8318932371717749 187 189 188
-0.5450805836105931 0.0722596820264963 1.7932123274474536 230 235 231
-0.1222132146529335 0.2003771011165793 2.0144430122590014 83 84 86
0.1038339152662565 0.3253192890985279 2.0476280290937234 119 120 124
-0.1149971042517841 0.2035031197084141 2.0214462784301919 167 172 168
-0.3032347327855377 0.1895889930088940 1.8213657138011539 72 69 64
-0.4614177652657691 0.1221073614172197 1.8864318229737422 90 92 89
0.0838911535113134 0.3142181846899788 2.0305687078025523 118 112 126
-0.4733035387170665 0.1262645800481590 1.7093373304113597 116 119 92
-0.2779795912335334 0.1999609109827423 1.8423824295189744 119 117 120
-0.3616586932701946 0.1478853144535957 1.9360757143199543 98 104 104
0.0811728759566682 0.3112278639378980 2.0275750228206348 234 227 217
0.1161669701096997 0.3283514514035403 2.0606478412297142 116 114 117
-0.4624329739845482 0.1289056399852624 1.7185692135033095 219 213 177
-0.4756427735819723 0.1251394261533685 1.7137755924912581 92 96 82
-0.4604834681104022 0.1292965675311590 1.7211160702858304 168 162 140
-0.0613458429662918 0.2255933518448474 2.0768171839847196 103 103 103
-0.0611579668801202 0.2462399997947352 1.9201031947820781 105 95 94
0.0375107352257999 0.2878161017694822 1.9925722148808149 249 247 222
-0.4291695932293051 0.1319303683293007 1.9203622854749514 86 88 75
0.0041321317528226 0.2495551722201287 2.1203670745980072 159 160 144
0.1306602611958227 0.3365559827285497 2.0815085268511591 179 181 170
