ply
format ascii 1.0
element vertex 695
property double x
property double y
property double z
property uchar red
property uchar green
property uchar blue
end_header
0.0367714595249590 -0.0654436574859826 1.3425070854484551 165 170 16
0.0813415798442738 -0.0225329460679339 1.3380585938936951 211 215 34
0.0319837693219604 0.0486301661498190 1.2316974955358528 89 66 22
0.0675761830481208 -0.0256395607677228 1.3423519010120684 211 209 13
0.0170297602036189 -0.0191659079134850 1.3347651680810551 172 144 35
0.0492116643548491 -0.0541477451607802 1.3443165881070829 184 183 17
-0.0104821059209772 -0.0466259562089329 1.3087668075964216 183 149 62
0.0262560876517468 -0.0576119319373769 1.3388543277264173 193 201 36
0.0261293057479550 0.0798141859407175 1.2313273006697658 255 216 154
0.0018787344666616 -0.0237062375566825 1.3235069449937615 187 157 71
0.0109498626806591 -0.0551612416870258 1.3302137458077878 196 201 39
0.0791389500862715 -0.0149703089568250 1.3370598364755457 202 208 40
0.0174687986607255 0.0971199584745602 1.2186704241544437 255 210 135
0.0037254279445951 -0.0578032321785331 1.3226219881474914 182 181 41
0.0288338866435111 0.1018373663215793 1.2209864674235613 252 205 125
0.0081251435705176 -0.0505664090900786 1.3299009286710008 197 203 31
0.0896620714083570 -0.0141755964097709 1.3314876649914091 219 217 44
0.0443188745023786 -0.0381024629149012 1.3448291842890092 161 135 14
0.0121202393271050 0.1022430700493059 1.2091578409360701 246 196 123
0.0114371944409483 0.1052237681804529 1.2070389389214551 242 195 125
0.0418789824378864 -0.0362977409835979 1.3447520455508983 185 183 21
0.0378160099981466 -0.0345641514136706 1.3441158529527444 159 147 9
-0.0110526248969613 -0.0245267344226103 1.3029150266473786 187 163 37
0.0326751162947180 0.0004332532656789 1.3334135053859648 160 138 18
0.0107951460675747 0.1257667812469834 1.1980843024766983 255 217 150
0.0141029910874603 0.1288486016566527 1.2015960644155128 231 181 112
0.0806671520740187 -0.0029172263517927 1.3298453436637889 230 223 73
0.0178726168733408 0.1396618584945691 1.2004162526028885 226 171 81
0.0129022923094878 0.1444021841866947 1.1939954526211047 216 162 92
0.0151634173195447 -0.0021662713947947 1.3250161019811761 209 205 54
-0.0083523821746715 -0.0489224611266852 1.3116383414983119 207 200 60
0.0157796043614325 -0.0005283411187688 1.3241464663162004 188 189 33
0.0290538727282130 0.1581773276269225 1.1955281923724952 253 203 130
0.0197250009607461 -0.0262943358417151 1.3377072048651253 201 194 25
0.0603009093134271 -0.0195254880636674 1.3427135903708138 209 209 25
0.0118486032098474 0.0011541240816103 1.3192445544398537 198 192 42
-0.0117371913841902 -0.0173182013768282 1.2943093531572789 186 145 40
0.0643614375746583 0.0087303636426638 1.3274423517331448 235 215 90
0.0336546343644711 0.0131165569457437 1.3243112199990170 170 171 5
0.0234989731401692 -0.0113849064444633 1.3357095823473255 174 152 15
0.0025792438299612 0.0011154577120328 1.3049217559937072 188 156 47
-0.0005941364141638 0.0007391621734429 1.2946994752569061 174 154 31
-0.0016497574159369 0.0005609292124117 1.2907183416630710 167 131 34
0.0721953501314372 0.0188733455881191 1.3119487035990174 212 201 33
0.0410504147753241 0.0248535771610922 1.3120106231098443 165 158 8
0.0152747898005381 0.0023647349192536 1.3219516996044580 200 195 52
-0.0054874445150042 -0.0021266608539769 1.2826573559863528 186 175 31
-0.0074151210779155 -0.0067898779377489 1.2687135095024773 160 125 43
0.0334428821189755 0.0110710596124612 1.2387145291120141 114 78 46
0.0402039617328839 0.0240481911740982 1.2500899864336652 249 232 206
0.0331503413772341 0.1653511828075015 1.1909414234820368 250 206 131
0.0796268946236243 0.0044808957305134 1.3245935396478388 225 223 52
0.0275435875203462 0.0863062721038002 1.2284007839001090 255 205 129
0.0321192207177397 -0.0798777911701426 1.3393014235944831 192 197 42
0.0313430262606115 -0.0345397121816264 1.3431274716541384 177 183 13
0.0008607621244684 -0.0369046889784247 1.3242909205480085 228 220 83
0.0585355526864181 0.0309984350767615 1.2948050557233033 152 120 17
0.0194031545106311 -0.0238541201474972 1.3370412801870526 169 135 25
0.0428543472141475 -0.0173428898193824 1.3423668222622367 216 214 31
0.0150146747020714 -0.0593116112091167 1.3318329776946962 181 186 31
0.0059103130500644 -0.0073836231485241 1.3192246977790913 183 157 47
0.0581941094097710 0.0268720439605219 1.3074104829317281 162 131 14
-0.0045929233540611 -0.0113274366410036 1.3058630315938311 176 144 43
-0.0029911880880248 -0.0505095714268867 1.3180116672089013 166 128 43
0.0308174537425301 0.1467557960977797 1.2008777324855200 255 205 126
0.0273324944584674 0.0433249289094459 1.2296674672653758 252 229 213
0.0285706344948126 -0.0759092810265514 1.3376016460148292 185 196 55
0.0433338901711667 -0.0689443970239606 1.3436826721887523 153 157 18
0.0248841955580903 -0.0695217662591072 1.3361390367755113 170 179 28
0.0204246972313338 -0.0721434742730042 1.3317279347119750 167 176 23
0.0197863353306012 -0.0661233995212127 1.3331621058382264 211 212 56
0.0189008412799398 -0.0672694683555741 1.3319303420763993 181 188 20
0.0183191289633059 -0.0568832723503349 1.3344343138587429 183 194 56
0.0332385007337839 -0.1165459437298250 1.3487797298456881 169 177 16
0.0145647566088255 0.0183738141168310 1.2866405984216329 110 64 15
0.0262794887306017 -0.0433764782600599 1.3407711344491289 178 155 27
0.0160619939490608 -0.0435957803480267 1.3355931561580252 174 179 0
0.0017387108339780 -0.0534506296690382 1.3226081983833229 182 172 22
0.0385588103077845 -0.0969619075111693 1.3455364856455501 161 168 13
0.0271431155545180 -0.0355492786397331 1.3415638843618287 164 169 7
0.0491544386641481 -0.0331765215937729 1.3446818129183054 146 124 25
0.0269106813919837 -0.0880093081890920 1.3367200117390017 188 193 49
0.0084795583452220 0.1454396675289346 1.1857860419997790 255 216 138
0.0188373331129934 -0.0342952134130163 1.3376698583527655 175 159 37
0.0237981732390807 -0.0319465349201640 1.3400441099081610 165 167 4
0.0294305431120031 -0.0808009832789628 1.3380246490477703 185 192 54
0.0396062561383275 -0.0743760220341132 1.3426570285828781 162 143 23
0.0302695957522156 -0.0755008279425457 1.3388748645787529 167 148 27
0.0336747111954441 -0.0716736631462245 1.3408687841524680 177 180 37
0.0352714504418570 -0.0701015675007003 1.3416654480998700 200 201 61
0.0518256405592260 -0.0520964869729217 1.3441968606976509 144 130 25
0.0081712825227972 -0.0652277716276744 1.3231045824533387 178 184 50
0.0080279519291974 -0.0640154654431780 1.3240299307968342 170 145 45
0.0365785642280630 -0.0318398227731902 1.3435570841605458 173 174 10
0.0249676782883161 -0.0318764788417552 1.3404913667957359 153 156 15
0.0190255099342297 0.0594283695664960 1.2383527711934306 219 162 85
0.0143807952137846 0.0562016701754746 1.2328867130133623 225 182 114
0.0318996510520480 -0.0302116323547662 1.3427111526278697 173 176 11
0.0096066352628724 -0.0196841287439569 1.3292547670713679 180 156 24
0.0550292036646292 -0.0300095653747295 1.3443045264756392 197 188 21
0.0101287135136596 -0.0350089013837352 1.3325052284262742 150 119 26
0.0129419970232358 0.0596208788471314 1.2281229413393877 255 211 131
0.0062973157781378 -0.0349978523477552 1.3296157377906686 162 123 18
0.0166890817022806 0.0646145499317836 1.2324972159339025 206 159 71
0.0174483879578549 0.0672374450928655 1.2325842701381233 197 148 69
0.0166205087311033 -0.0094874008214262 1.3306769049333238 156 133 17
0.0226114880901074 0.0710157607967901 1.2347566654363624 152 101 20
0.0206285583221720 -0.0051766018391623 1.3311607526175022 165 153 7
0.0129886727508370 0.0660716383224343 1.2255341649028517 196 143 63
0.0145554262319591 -0.0169209618018022 1.3324801869876821 152 131 12
0.0312617215543237 -0.0125943897697513 1.3392280076931757 201 201 29
0.0163094177055470 0.0707073588354530 1.2295987048062649 189 145 70
0.0181184519433868 0.0729535227983247 1.2312392855990784 249 200 108
0.0359717018019042 0.0739134879216572 1.2328552975194584 229 177 101
0.0143051911115764 0.0705262620624603 1.2264701720061129 207 169 88
-0.0088926054347194 -0.0220659844450899 1.3055280181547326 189 181 36
0.0114853166865901 0.0677768631708383 1.2205072630436535 245 205 135
0.0141396499021755 0.0734789010409139 1.2251816957645201 227 179 113
0.0037924497293825 -0.0095704031999819 1.3182977136714475 156 156 22
0.0216131775081845 0.0799855326693626 1.2297849375387140 216 161 79
0.0203868381929206 0.0800999316338766 1.2291707521236377 226 170 87
0.0195977374236389 0.0804639828083872 1.2283455237277099 239 182 103
0.0204393637996135 0.0816100173276198 1.2282976604350355 231 176 94
0.0217812434454996 0.0819836070431108 1.2287729577067401 167 115 42
0.0176250094635642 -0.0098864238148141 1.3318301063105384 206 198 35
0.0707670828552213 -0.0076149618138509 1.3363073409172281 179 169 20
-0.0138231333543269 -0.0198056295159258 1.2913883000418533 170 143 30
0.0175555924048147 0.0843288144182443 1.2247944661148682 190 148 74
0.0642852298083404 -0.0027117264618159 1.3355885062955299 174 155 16
0.0171069327348300 0.0860381075122188 1.2236882778778575 203 152 73
0.0168604396906595 0.0856607730911604 1.2231151848604989 252 198 110
0.0146742727017837 0.0849271444860822 1.2206330717151530 250 207 129
0.0692090163691927 -0.0022764483907391 1.3342877426724506 191 187 26
0.0244567189417707 0.0903206000027899 1.2257566250736449 255 208 133
-0.0147196424988474 -0.0199605374435666 1.2853091531980594 159 146 16
0.0331024423527335 -0.1011685185155603 1.3443450147664004 148 154 22
-0.0020891496199060 -0.0052902423181936 1.3040373843245572 170 159 31
0.0135532698602815 0.0872972962691912 1.2182483640762882 180 127 49
0.0260275626779092 0.0924800138134267 1.2250327414993520 194 148 70
0.0132587372998289 0.0882413303376387 1.2181961351492605 195 143 67
0.0126466793353439 0.0884394475332261 1.2157625894536750 207 160 78
0.0570852484738469 0.0032230590613860 1.3340586660403659 194 180 29
0.0125871736870961 0.0896985115288045 1.2149245966313684 217 172 107
-0.0134421021200766 -0.0226196135437043 1.2960655425095016 233 220 54
-0.0147653374075864 -0.0198952507676660 1.2805497660466871 202 166 30
-0.0022090097895681 -0.0037060457641120 1.3008147997458932 170 149 32
0.0533967180823829 0.0138838834841496 1.3263272710958787 192 179 38
0.0428806863958706 -0.0904942813677430 1.3454650879705465 167 175 12
0.0186858470692299 0.0962011457525009 1.2202437064800724 199 156 87
0.0131684382244129 0.0936330524228211 1.2146809034500485 217 169 105
-0.0126555144105664 -0.0148103450046962 1.2803918420603406 142 115 12
-0.0134283539232987 -0.0199218916741251 1.2925789549074000 117 87 23
0.0131638942885575 0.0991792452191274 1.2126620901555181 255 207 135
0.0325440754669646 -0.0773778140877748 1.3398752811686885 158 165 23
0.0705407097140641 0.0057662329957886 1.3282285752068121 165 149 4
0.0393683817193491 0.0185471122622620 1.3207608324357991 182 152 4
0.0155881430724135 0.0127870175437436 1.3102511434430970 163 143 18
0.0205119534092006 0.1079615208859678 1.2152657903378299 195 144 81
0.0148851985680695 0.0126428278273302 1.3087547514197169 133 127 15
0.0197107431439648 0.1100939002248301 1.2138058353314976 223 162 69
0.0131711584998146 0.1083310167278791 1.2082152765123679 255 219 144
0.0308637674494149 0.0195714718292206 1.3162561006217199 195 192 39
0.0050340082851220 0.0014833834515458 1.3096800406318827 147 124 22
-0.0081826265396556 -0.0074989134591521 1.2743320556635513 158 125 18
0.0400048994816456 0.0148241587150312 1.3246480119333266 177 157 22
-0.0110460581143590 -0.0121036050198910 1.2858997053765155 219 204 53
0.0359296569381118 0.0250086013421666 1.3102002012988734 154 137 7
0.0106972346310705 0.1191778478699896 1.2003281416542735 204 152 77
-0.0040566436390913 -0.0002943228052303 1.2721473287186680 116 85 41
0.0136576222366365 -0.0561333473721351 1.3316951558320564 183 152 36
0.0473025813056376 0.0269317630423195 1.3097149481845198 160 124 10
0.0591079559602019 -0.0464623366648032 1.3437927582622367 149 144 16
0.0179401453498038 -0.0480335775241711 1.3359788727873398 176 190 15
0.0474732656614939 -0.0414722831753212 1.3448049227639365 133 120 15
-0.0087059738231360 -0.0103357040594221 1.2675982345429668 156 122 35
0.0200138686477200 -0.0425325976623624 1.3376670670479143 149 131 7
0.0368897571491373 0.0232755428515447 1.3135877688767368 163 153 3
0.0232547628942781 0.0215212475081820 1.3044144827926971 127 111 24
0.0365456566560057 0.0253481524281739 1.3103767269818853 170 157 17
0.0527329122431955 0.0314804837929431 1.2971762986767172 163 137 24
0.0258238187597937 -0.0330426264246372 1.3408710157506536 175 175 19
0.0198319467356163 -0.0347995032106999 1.3381206196104478 128 116 14
0.0092342440758349 0.1473317638094305 1.1875206434447725 211 160 71
0.0183954958504149 0.0623169640232641 1.2366538590916518 252 208 137
0.0152912370389389 0.0616694680499146 1.2320004237462749 183 132 51
0.0131993650496532 0.0603938320387210 1.2287849938114814 198 143 63
0.0221489024039621 0.0748379260588346 1.2324648052856846 207 162 94
0.0353564928289606 0.0756160226016725 1.2321544995779039 255 211 136
0.0104757474298801 -0.0178628254690997 1.3296334624071975 175 165 18
0.0290193488733246 -0.0100322401161922 1.3371080009122729 221 210 82
0.0355682123597775 0.0834422586516496 1.2278503612625453 231 174 87
0.0335438383200708 -0.1141126883722736 1.3480678886628139 155 160 6
0.0140180964047048 0.0876782221158245 1.2185081776536622 220 165 82
0.0205784819307252 0.0953554989682381 1.2216515427720327 193 145 61
-0.0147905040008817 -0.0301425183973717 1.2975219748578688 171 132 31
0.0654447553584248 0.0000395220091146 1.3336572294385654 160 136 48
0.0427565504716833 -0.0797202525223259 1.3435810995922557 120 126 2
0.0153543364001575 0.1075001277589650 1.2113314208258725 201 162 93
0.0162334647922584 0.1085035458209491 1.2124346856407009 193 149 76
0.0272284376207859 -0.0803105697149663 1.3366519049337426 187 193 69
0.0589724962396856 0.0044861366671632 1.3325268384762752 188 180 37
-0.0163703624571521 -0.0249791621042258 1.2816296354559475 232 217 88
0.0594195398486822 0.0090527395440494 1.3287621164107541 149 146 5
0.0017982780743996 -0.0012186634201612 1.3068962660193786 136 115 22
0.0180932713411215 0.0085161708042926 1.3191239726583326 159 126 29
0.0654783563579865 0.0112615308520158 1.3252130590893707 181 176 14
0.0584613827107222 0.0177954780977501 1.3208942745837946 176 181 19
0.0184384735216505 0.0163877053506774 1.3086114497115455 143 109 22
0.0067664806917753 0.0117043880117078 1.2853783822508782 140 102 31
0.0150401094388483 0.0191543407431496 1.2860703932784732 143 98 33
0.0338782655535727 0.0106534667695023 1.2364237293731235 231 211 184
0.0183248000927925 0.0640318652435027 1.2349496170943597 229 184 116
0.0128724245073895 0.0678336166936685 1.2238085975868320 217 170 100
0.0152972895417445 0.0884310051103579 1.2200350886870015 219 171 99
0.0154811945245758 0.0918949439860938 1.2189591939555888 237 178 86
0.0134420482563976 0.0982543594017390 1.2140731099074114 173 130 61
0.0110262323197478 0.1249426627147183 1.1990996646199237 253 216 146
0.0072397679291546 0.0021274376425149 1.3124977678142058 149 112 31
0.0064304675159306 0.0054884019397054 1.3062996004572249 155 117 34
0.0254780261763436 0.0170682162149709 1.3156091797922083 129 102 11
0.0288329123943156 -0.0909498678538841 1.3391916983839693 189 197 32
0.0409236932179795 0.0249377347997594 1.3123069751541570 176 169 26
0.0437871736023147 -0.0616135609409344 1.3441003271609804 146 149 8
0.0137302900887531 0.0164771048883141 1.2957444293916576 152 124 17
0.0096580866817497 -0.0658822807708537 1.3243113369427051 191 204 37
0.0223784556746950 -0.0669600393935410 1.3347861310660549 192 199 33
0.0196226572675225 -0.0685976209376074 1.3319876652282363 183 195 35
0.0722174680950698 0.0245480469604364 1.3030674370145965 193 181 47
0.0062189922789546 -0.0466187530008731 1.3283707362767674 185 171 36
0.0605947898410702 -0.0379732165514157 1.3442040999740887 158 132 48
0.0630440212324997 -0.0302259447131045 1.3435387755385755 185 185 25
0.0567836436924507 -0.0179280137496659 1.3429098758780880 205 195 38
0.0082829701740113 -0.0246078512280289 1.3298915398186792 95 62 27
0.0732971320258469 -0.0104943578962396 1.3370685462339074 181 184 17
-0.0166805467890022 -0.0357086216315033 1.2913803276363043 211 200 74
0.0725010212200719 0.0012394291570085 1.3302520113060041 161 153 16
-0.0115779593836386 -0.0238827828398215 1.3008801569930066 207 206 62
0.0244642609375809 0.0181436025117171 1.3132369884249537 188 172 51
0.0197855056393823 0.0018071175216329 1.3259307885473584 182 183 20
-0.0164059632112947 -0.0262542219088329 1.2830989671688688 142 109 32
0.0047502894661026 -0.0572526772344666 1.3237398634487034 212 210 48
-0.0163013032294542 -0.0363911374783709 1.2949611608861036 150 118 33
0.0647777770907049 0.0054695142981143 1.3297814962006407 150 145 1
0.0721307904762912 0.0081463466555421 1.3252605926566958 178 169 28
0.0127093910195067 -0.0454239710198587 1.3332877300985211 153 120 23
-0.0058045194603867 -0.0137886630169961 1.3045739758651136 177 149 42
0.0104404149703331 -0.0676884374092689 1.3241584946858553 161 132 38
0.0166347820670375 -0.0603801234657066 1.3324825344003615 175 172 5
0.0086413464204540 0.1370546159551764 1.1892908204949453 244 196 120
0.0150586358642326 -0.0600554217664185 1.3315024688832409 179 160 29
0.0248091527318372 -0.0551390598337393 1.3387430805828933 172 182 21
0.0064172968622900 -0.0675539746396220 1.3200501441657226 162 143 23
0.0395754074523391 -0.0519186305005807 1.3439114210328773 153 152 12
0.0046798386240909 -0.0694438387314303 1.3166040692090670 147 126 9
0.0247961442192033 -0.0517331709306662 1.3396308706025877 168 161 19
0.0190239331182198 -0.0505856576317286 1.3362427103527899 172 156 19
0.0263283868835030 -0.0479426907042444 1.3404296515680998 180 184 29
0.0076577119249535 0.1385207647319067 1.1791160672454524 228 176 93
0.0210593445311358 0.1497646291039161 1.1974368475198440 230 173 92
0.0072057615204225 0.1408699212671218 1.1822398255395421 253 206 126
0.0140336474804161 0.1484248180320169 1.1935661852163519 219 160 70
0.0104835233438521 0.1477405498087291 1.1894161166309469 255 209 137
0.0421662346845703 -0.0425205593628040 1.3445699906145292 171 164 24
0.0097147640876144 0.1480750390676533 1.1877558625937272 255 207 125
0.0128857556213735 0.1504529799878427 1.1915074310849301 249 196 120
-0.0037695660285446 -0.0638205562661728 1.3095088265007442 183 173 39
0.0318575237036195 0.0171173101704383 1.2549428391110189 83 60 42
0.0133022897921202 0.1511406178481708 1.1917300461463420 211 151 78
0.0068058501956688 -0.0492592844702266 1.3281218836693842 175 166 9
0.0071441822771722 0.1463902360628166 1.1817333678776314 246 199 127
0.0084821066484218 0.1486116198891194 1.1852123208963694 249 197 113
-0.0000552089038055 -0.0525840296910026 1.3213618999045493 183 185 24
0.0131276298556893 -0.0433458927686439 1.3339608149622721 149 131 19
0.0123063837622312 -0.0435922437474111 1.3335824540028396 167 143 21
0.0384846362677300 0.0228006622077262 1.2591390518789629 119 81 42
0.0389309807564779 0.0232003832805274 1.2586618318986671 57 17 9
0.0139606772666057 0.1529752800805822 1.1914693129271587 255 207 138
-0.0061043235638320 -0.0568782327107556 1.3121501474801025 207 171 35
0.0102963848761369 0.1518631248980145 1.1879689663234014 252 203 124
0.0348097558953017 -0.1188325310782125 1.3498660354526268 192 197 32
0.0080028564451656 -0.0419344093922666 1.3308204872301208 191 192 26
0.0067229370288224 0.1483378415176183 1.1793532655130869 234 186 114
0.0150979273780834 0.0522805818060614 1.2332689609290770 230 181 123
0.0191166899031433 -0.0356235628169984 1.3380332394426575 177 164 26
0.0145737814610952 0.0530433447295488 1.2326887656663499 251 209 135
0.0112317143676818 0.1556054922466380 1.1876014091093485 255 203 128
0.0212076396231936 -0.0345258385604444 1.3388547513797120 141 137 14
0.0011656093260807 -0.0426741370756197 1.3247762193248231 190 170 45
0.0141370318612798 0.0551270963116917 1.2328838665437349 151 101 28
0.0061101967129013 0.1496178182231236 1.1745790124964712 204 151 59
0.0148583621077030 0.0566790646248129 1.2329265971213443 252 214 143
0.0070699898378342 0.1541343902663771 1.1799953357443957 226 168 68
0.0077159355431770 0.1563328600259000 1.1822106423096468 255 200 111
-0.0079200715512560 -0.0661641173376936 1.2928416761019095 172 138 40
0.0059521771138712 0.1512864807885337 1.1725276958481998 234 187 107
0.0197006105660004 0.0618460895115332 1.2369974666453012 205 161 88
0.0090210624772781 0.1578868854948923 1.1836495417818809 242 183 91
0.0434826153698383 -0.1008486274808421 1.3480721269392484 165 173 28
-0.0119210130127285 -0.0539668462286081 1.3039733190107194 225 215 55
0.0152939125323375 0.0615472682409796 1.2321723317842255 196 145 64
0.0099085270482452 0.1610829155228164 1.1839252124654041 243 176 85
0.0602524950238471 -0.0307003178396310 1.3441916610288787 166 153 13
0.0216391964743227 0.0653841474914092 1.2365515078316158 239 186 106
0.0186473096294946 -0.0290825054028162 1.3375329240710854 190 190 6
0.0230053762357870 -0.0278676009718984 1.3393300367552126 170 166 7
0.0161255720972963 0.0648400530019531 1.2329994432790021 221 160 80
0.0215836705513291 -0.1115741463723842 1.3245757924799897 168 160 35
0.0507910001132296 -0.0959597424364009 1.3468613919624881 151 148 9
0.0236032148300279 -0.0253688922251255 1.3392958807979103 178 164 6
0.0326241272030586 -0.0953881782922337 1.3424528300053900 151 148 5
0.0216642775765321 0.0709738460235999 1.2341134051715701 221 169 94
0.0127735125603342 0.0655188456536730 1.2250742092755800 226 178 112
0.0213644417783945 -0.0240697887994375 1.3378610897985928 174 144 14
0.0351695923570789 -0.0900148601247169 1.3427451996710351 169 173 24
0.0226386261435688 0.0716706078331802 1.2345709420538100 192 139 63
-0.0075937684442064 -0.0389045013179819 1.3141531827093518 164 152 6
-0.0095342533368564 -0.0411969526213572 1.3108562378125581 156 148 1
-0.0132289665666793 -0.0559590800270489 1.2925722900590209 171 172 44
0.0296217190286018 -0.0903738385516149 1.3397602985967412 196 205 28
0.0249415530351715 -0.0923268282395909 1.3353374239140239 180 168 22
0.0249329608928263 -0.0923525621935596 1.3353692169560083 180 168 22
-0.0131143636099222 -0.0562687329522733 1.2905811418304121 159 133 48
0.0121869129751638 0.0672093494036147 1.2221780285048023 255 217 148
0.0111297304711736 -0.0249336255551665 1.3321780392901850 165 133 10
0.0123665512736878 0.0660847785568268 1.2193760372495981 249 202 134
0.0133907280539435 0.0709436991827565 1.2254984501205586 255 217 150
0.0029037299395135 -0.0281220888271155 1.3256470127944457 178 153 26
0.0135979621724626 0.0704595652400024 1.2248095032679727 227 171 84
0.0061829529045465 -0.0259434953182571 1.3284808205175309 148 118 28
0.0299017773990460 -0.0811857235163659 1.3384534111082267 166 169 40
0.0293886368832815 -0.0807890449419356 1.3380652465504494 192 200 63
0.0124015518134226 0.0694981326854616 1.2211685258865361 255 213 144
0.0132077569048202 0.0714300509003623 1.2232443527791752 229 162 81
0.0137093825506848 0.0725990498716779 1.2245637803120031 232 184 118
0.0142055565469483 0.0740676698092900 1.2250225642074040 238 192 115
-0.0129709881288376 -0.0403802914581278 1.3054179149202403 161 141 10
0.0138389015542565 0.0751066354946585 1.2244061827288262 218 170 94
0.0339536448248350 -0.1185329579891765 1.3493871173471683 177 175 13
-0.0152743927945623 -0.0468227706221518 1.2955035159667587 192 159 44
0.0142473928145996 0.0768378565889226 1.2241692301309244 165 117 45
0.0378448237026344 -0.1154809037206448 1.3505239255965624 156 164 19
0.0275933424339477 -0.0707782037896965 1.3375395133454357 169 177 40
0.0445862722085068 -0.0154495777813756 1.3423730565796652 161 141 20
0.0123332369076626 0.0758278527322866 1.2192945279614522 201 162 87
0.0244244835281025 -0.0705525387263637 1.3355654286237357 149 158 7
0.0251883600224885 -0.0686622090828205 1.3366364091732261 159 170 14
0.0131920409239641 0.0794520484123540 1.2208918566931564 164 115 39
0.0137016313120149 -0.0816268269175370 1.3174584592972773 185 187 64
0.0120954391899797 0.0778352424856278 1.2172995491793774 251 203 129
0.0105272563693275 -0.0186454479563395 1.3298745184388232 160 126 16
0.0160117063526186 -0.0677489889910484 1.3293237969986362 195 198 29
0.0301980326211092 -0.0582017670119879 1.3408397182736420 156 146 15
-0.0133747225200840 -0.0549398656855758 1.2790953556499620 143 99 34
0.0228649024825084 -0.0564466028340077 1.3374431254063956 192 192 36
0.0176398802459349 0.0863193620043035 1.2236301114841772 255 211 132
-0.0160133269397735 -0.0453245522336630 1.2902329684779386 224 221 88
0.0141563223484908 0.0857364329926194 1.2194028807871602 255 224 157
0.0361413161584280 -0.0486697560357673 1.3434280876438842 187 182 56
0.0136786309496881 0.0866871015809676 1.2183403341936163 180 126 54
0.0113078066271668 0.0831535343998022 1.2119887683756374 186 129 48
0.0288800524498540 -0.1042382280874488 1.3423296204847013 153 158 4
0.0133190657478019 0.0873348765822986 1.2174454878813241 208 159 92
0.0482766733324835 -0.0083482858141797 1.3401957042273744 194 188 38
0.0121157387774712 0.0863536311246282 1.2146313420892336 245 194 137
0.0434416231909934 -0.0437963648069998 1.3444233019097114 154 134 21
0.0187751138471715 0.0919651275422876 1.2219246510362431 248 199 130
0.0301130069717608 -0.0427407969540842 1.3422561758068652 179 184 22
0.0120003557986254 0.0878580867155995 1.2138823456882051 221 177 116
0.0126791505242407 -0.0474016372120170 1.3330979800683411 154 137 19
0.0131921464941345 0.0898691878576104 1.2160094634060941 223 174 107
0.0116266819051153 0.0875184494173705 1.2124003108521033 218 166 90
0.0151322804783223 0.0924014131999999 1.2183028049415296 255 216 140
0.0139134377496571 0.0914790551288212 1.2164068251598330 255 212 142
0.0134406975890903 0.0916077493496066 1.2161126173102779 149 103 25
0.0112411087292726 0.0877133401183286 1.2097888934461176 221 169 85
0.0324908301513176 -0.0986528509744309 1.3432772688932000 170 177 12
0.0179426555302813 0.0949123947306878 1.2200525274029141 195 148 76
0.0217801298467266 -0.1125521526230482 1.3253474509347585 199 203 82
0.0132381041427733 0.0924041922707168 1.2158996272248990 204 149 82
0.0039112641388914 -0.0489290336246445 1.3260661203758877 169 141 18
0.0026340703416252 -0.0499196151752676 1.3246073898586006 172 149 37
0.0114488844458711 0.0905881626721163 1.2110127085300035 157 102 22
0.0112188750606052 0.0911092110633684 1.2100291887753962 255 211 131
0.0114714878842843 0.0918201324770066 1.2103876854194076 228 170 73
0.0562329921819279 -0.0366674037388957 1.3445450171652680 205 195 61
0.0136873414075375 0.0950256176517153 1.2147804485923357 255 209 143
0.0112529789244003 0.0920472656869007 1.2097151159537634 203 159 84
0.0034924569128054 -0.0429445369658422 1.3264861294253332 175 154 26
-0.0100110757137384 -0.0590271172173172 1.3027181995013761 188 159 33
0.0349344306634404 -0.0912935644843282 1.3425178500058084 182 193 27
0.0266989690396135 -0.0310647800487788 1.3411808095355244 205 178 49
0.0151705913607180 0.1001636048215635 1.2149067796016160 232 179 101
0.0129667950305807 0.0985185762223315 1.2122513308153107 210 157 79
0.0113459199711265 0.0966173134304157 1.2096080623860523 222 168 98
0.0089464309830888 -0.0353132609722568 1.3313493730928054 161 146 27
0.0142181618659001 -0.0327821879209290 1.3351845204498876 183 159 7
0.0439440186614382 -0.0011152738285745 1.3365837220260568 177 162 21
0.0120728721543892 0.0990354045301130 1.2104775293577579 168 117 38
0.0058483858199999 -0.0089937750955199 1.3206432236621841 179 172 21
-0.0122742932502399 -0.0554392933201064 1.3002331908836406 188 172 25
0.0119810979021594 0.0992096038661781 1.2097392057521905 229 183 108
0.0286560133471586 -0.0252040927707957 1.3413272066393511 141 140 0
0.0341779010011497 -0.0827211638973890 1.3410074479505019 167 173 21
0.0491931876074715 -0.0004952388049426 1.3365673367252022 168 149 20
0.0120323288501412 0.1009331399215849 1.2087459219193026 235 179 102
-0.0004278556628181 -0.0117949949529930 1.3142319626415115 157 141 30
0.0122206554457094 0.1015077729409542 1.2090406311761792 255 213 145
0.0106720795378343 0.0962072448939986 1.2014333024948123 207 157 86
0.0464517420055087 -0.0241802873376744 1.3437239601639306 175 154 3
0.0119083827176052 0.1025677978445610 1.2084729344061746 255 212 137
0.0471324691962602 0.0004367026334551 1.3360223591377176 220 215 85
0.0287126354227188 -0.0818382819349047 1.3376425226859856 167 177 46
0.0003351872452418 -0.0327762546444486 1.3234767806653374 206 206 22
0.0376918109217225 -0.0785404400904434 1.3420984894284189 151 153 30
0.0154945290246065 0.1070581135238100 1.2122677608325314 241 185 90
0.0151220306902645 0.1068768770616853 1.2118116277856019 255 210 134
0.0176538804495484 -0.0236196681333835 1.3362132989224769 169 158 14
0.0159927899726118 0.1077344090456672 1.2118842990456060 238 185 105
-0.0140671031600796 -0.0462207684054713 1.3018408870852782 184 155 37
0.0252239105168970 -0.0805533453052127 1.3352823093872606 194 202 65
0.0108188249866321 0.1039527882932905 1.2053371120598064 233 189 114
0.0207724879588517 0.1100634090456810 1.2143925163911815 192 144 68
0.0325100769021054 -0.0760796022692436 1.3399775130217635 150 160 12
0.0110957442749574 0.1050587670065241 1.2054396257387205 194 144 71
-0.0169822521221882 -0.0360273955477430 1.2776550582138897 184 166 58
0.0162026333259590 0.1100166014720862 1.2116838025057373 208 152 67
0.0154394107334575 0.1098529805714616 1.2110315600789703 214 153 70
0.0122904662941383 0.1080356192296405 1.2074118377304341 255 207 133
-0.0154591286709268 -0.0423882697183420 1.2692859778847663 189 178 28
0.0125601806655749 0.1085041062388747 1.2078375237356076 210 154 79
0.0161191774035350 0.1111623861355613 1.2112261771929487 211 154 77
0.0119517342284056 -0.0017506280967834 1.3218928563354109 180 173 31
0.0450380578300866 0.0040299485402332 1.3339969551640107 202 173 71
0.0069719941300087 -0.0039230273317759 1.3182227248045160 195 170 54
0.0189748423824628 -0.0167174693032220 1.3352133902701686 187 166 15
0.0133338202057409 0.1111977250160327 1.2078446807735219 222 168 94
0.0113425274644254 0.1096615837032309 1.2054543082433573 214 162 86
-0.0153051357987772 -0.0233123819221547 1.2897360855097220 217 208 41
0.0101012021358390 0.1055427124500336 1.1973313438443978 215 166 90
0.0130736815126356 0.1120818273782665 1.2073763580814538 243 182 99
0.0148080470696905 -0.0823587177912399 1.3191791325118671 184 187 72
0.0122714596240237 0.1122258353421516 1.2057857925773263 189 131 58
0.0120354742602506 0.1123039856290757 1.2051199098912337 255 221 141
0.0374037826652141 -0.0645005619288506 1.3426506586918754 180 179 13
0.0094995073848698 0.1085861319807291 1.1986596316260185 250 207 139
0.0803824302632631 -0.0016251702653339 1.3291346140748534 179 166 28
-0.0130621099970710 -0.0193400278712829 1.2928146419765523 153 128 27
0.0204375854857872 -0.0703212067729881 1.3321640058574693 172 179 23
-0.0165252000300402 -0.0322552382948488 1.2751591969647806 162 154 9
0.0105910201801717 0.1121192483582276 1.2017116862292629 255 218 155
0.0260346526449735 -0.0662249297979883 1.3373889633368543 165 176 20
0.0186283019592455 0.1175304971548425 1.2102887269513811 216 162 66
0.0126901232372536 0.1150125438537787 1.2058169851433516 237 180 75
0.0156420745801233 0.1169622698090435 1.2084048909169436 255 202 126
0.0157884294225062 0.1169009663000595 1.2082597061540579 243 192 111
0.0117854113508138 0.1151475663612368 1.2043743131373825 235 176 98
-0.0073718436902725 -0.0126266032305758 1.2997429180380342 132 108 20
0.0109091494089975 0.1139183103193495 1.2018085857741352 255 209 124
0.0122993783853208 0.1157674543958285 1.2044345137200878 250 211 144
0.0168509658241363 -0.0689770838729845 1.3295429374537215 187 191 16
0.0152684851762128 0.0029137663142529 1.3216013971044376 181 177 26
-0.0009886517630675 -0.0212893209023093 1.3186097036346132 183 175 28
0.0119918990048669 0.0014988307464997 1.3192595786772674 201 189 55
-0.0057449576823854 -0.0101854447105015 1.3010006033811494 164 138 28
0.0121196098326461 0.1176624847469588 1.2035746206236599 255 210 134
0.0143030385937151 0.1196022753511625 1.2057476916797925 255 217 147
0.0359121243461652 -0.0580251408260532 1.3424832888627281 173 178 16
0.0138293421505761 0.1199720292871087 1.2049024438803277 242 183 91
0.0093816939439353 0.1150349688079408 1.1962748085241273 255 222 153
0.0115112853203847 0.1194465736295946 1.2015300127506250 238 184 94
0.0436372377187671 -0.0553433196643773 1.3444037445871808 176 172 49
-0.0037557197188145 -0.0071273096682377 1.3019485187369677 232 217 76
0.0119618830937883 0.1205585449667402 1.2021744596316566 226 173 93
-0.0100196916541593 -0.0264440502902618 1.3064563835245413 176 168 5
0.0078415693724399 0.0016547211984781 1.3140592669733269 136 94 20
0.0458180635537789 -0.0534726570559530 1.3444119296951933 156 149 61
0.0117423320936458 0.1203384146708003 1.1983133377198587 210 164 104
0.0138899993300806 0.1233850633437343 1.2038044091954185 248 191 114
0.0087840301745602 0.1169261769004102 1.1922576720721341 225 181 108
0.0054880691268160 -0.0752960114451491 1.3105116164389803 196 206 21
-0.0117876328166503 -0.0146757143408438 1.2891479363405691 176 150 29
-0.0136849753267871 -0.0172159318906834 1.2853818049012091 147 129 21
-0.0018863966341835 -0.0174333728020065 1.3159464781477215 196 172 1
0.0088710123331280 0.1183466117474134 1.1925166679909442 209 154 72
-0.0112391279394670 -0.0138151928262509 1.2892127659834558 168 134 27
-0.0116750078504769 -0.0256465896880161 1.3022659245121015 187 184 31
-0.0169256483831148 -0.0378361841593521 1.2861983412022577 185 147 50
0.0176195327226257 0.0078842972928910 1.3195840611000829 200 173 42
0.0104951480508629 0.1237285516398825 1.1983326772573044 253 209 120
0.0098966804695713 0.1227731356638487 1.1967520302683423 255 205 124
0.0195300190335705 -0.0519896857297458 1.3363481124849759 173 180 25
0.0114324281931274 0.1258345909338533 1.1993362558540162 242 188 116
0.0157068470408866 0.0078636075797255 1.3173703486318353 202 202 46
0.0104541979196572 0.1249457099334671 1.1973426329187467 179 129 42
0.0639148307765881 0.0103522675356210 1.3267304155862139 149 145 11
0.0092662886278905 0.1240566384343097 1.1946974969011448 222 169 99
0.0128884961391323 0.1283566745480834 1.2004826213743149 241 194 112
-0.0001059848569588 -0.0701724860202527 1.3081635087304919 190 187 44
0.0096445248777840 0.1260588878734740 1.1955677128926441 247 197 126
0.0099835592759770 0.1266797061974490 1.1958174968137503 255 219 151
0.0092450107744490 0.1263803569213933 1.1947065036535980 255 202 132
0.0140371648547354 0.1304303696494252 1.2008692752187857 243 186 99
0.0113323185400682 0.0071242620825192 1.3123454923659719 127 99 2
0.0121639937628637 -0.0489327475358532 1.3324860676463433 185 168 18
0.0225305721837822 -0.0451454503990727 1.3390137124791091 156 148 3
-0.0024180842359488 -0.0689965243195233 1.3056654346127716 189 187 74
0.0087540446701170 0.1277958831821472 1.1920345844909022 217 170 92
0.0480003922690918 -0.0423642433927009 1.3450859888321198 159 158 8
0.0321158767603706 0.0147029470962497 1.3223327831546041 219 209 49
-0.0114616554971364 -0.0119918719940212 1.2820840296006035 180 161 22
0.0100224253910606 0.1319476387819015 1.1944179338031582 253 194 118
-0.0029319166572368 -0.0581681867440395 1.3156985540932575 182 159 1
0.0134575006654157 0.1342560062737607 1.1979578597661449 251 195 100
0.0010238890809082 -0.0101374215116779 1.3151598088426384 171 152 34
0.0130238509470554 0.0092644090496688 1.3119093235622150 193 182 32
0.0035136965927375 -0.0495327844541078 1.3257601950263118 165 151 18
0.0036572240487335 -0.0495919724413291 1.3256932189680226 171 163 20
-0.0087619581675920 -0.0080390889325141 1.2860318875931891 197 178 39
0.0081264016272073 0.1289903340657104 1.1879016760730621 231 171 83
0.0082038425049774 0.1274080522052582 1.1840064496939797 255 206 131
0.0101239821620718 0.1336675329034860 1.1933049679948207 244 186 102
-0.0165559340487944 -0.0274071169747585 1.2882445482077487 237 218 98
0.0247756117613028 -0.0389999664341208 1.3405253582464263 169 161 14
0.0016216516139933 -0.0082174651209623 1.3144422995621414 146 109 28
0.0108563175613491 0.1372439713737877 1.1937571523143042 255 202 114
-0.0165153415088584 -0.0265225572852108 1.2874060094628326 206 182 60
0.0130548347815075 -0.0403160315822521 1.3342294849872969 200 209 32
-0.0112668530785872 -0.0276574059931645 1.2555164958926970 195 183 47
0.0556710942239867 0.0024758754928479 1.3344761493821680 181 172 33
0.0138281187330761 0.1401296027788649 1.1965408967232347 255 204 126
0.0137021634291708 0.1410200508328801 1.1962422164256588 255 212 133
-0.0099380070294339 -0.0094393375130689 1.2783382770012264 179 156 28
0.0463700477288002 0.0049105983165794 1.3334924732841176 197 186 68
0.0256622472921801 0.1461351665251149 1.2002771095017966 243 187 100
0.0080751288485173 0.1382125337888172 1.1868112510392299 228 180 96
0.0077366322406912 0.1377589387244165 1.1854672789730807 229 180 111
-0.0101345867672186 -0.0601719888420940 1.3012929349005598 188 180 45
-0.0095653628725674 -0.0093545630890032 1.2759994587851557 161 137 5
0.0109559971515614 -0.0001321002375875 1.3193873261502755 190 188 26
0.0339346426503322 0.0191415311961791 1.3183521643071294 162 129 16
-0.0104681466596396 -0.0161751754130132 1.2960185987743045 179 162 20
0.0081177689409776 0.1411417881194137 1.1865089486961755 255 201 119
0.0134884925533941 0.1455809455597152 1.1936965915024655 252 200 117
0.0166946190073841 -0.0326462871680697 1.3367123505467866 171 138 25
0.0090074412578334 0.1432691172192584 1.1882625023734312 209 153 76
0.0037048414717330 0.0066491701372898 1.2958807353808866 182 144 45
0.0433957713177410 0.0205428893969815 1.3190880214152960 203 193 17
0.0423009214678442 -0.0291825621688449 1.3445029310849792 160 147 19
-0.0028898269875141 0.0005885100111073 1.2863537007545840 134 118 31
0.0086233520070203 0.1456376616416960 1.1865923821553117 200 145 54
0.0086298607550208 0.1456000575084973 1.1866006332794614 214 154 56
0.0145624004177812 0.1500076553434452 1.1936064958026489 255 207 138
0.0188685478430220 0.0163238739813353 1.3093621006727523 167 137 13
0.0085790895173802 0.1465210318660639 1.1862211989578377 200 142 58
0.0072524074562957 0.1437983277061286 1.1810078716050729 255 205 127
-0.0115599712328306 -0.0530782103152985 1.3044100612104403 167 165 5
-0.0104511877357831 -0.0496573724186741 1.3085097367136975 193 182 41
0.0142011355829111 0.1507848650346583 1.1927367928148738 211 158 92
0.0133042664153239 0.1503711578148306 1.1919814142383491 210 154 77
0.0585210541883963 0.0066746866595471 1.3308079723618094 162 148 17
0.0062461327498488 0.0088605503061130 1.2974970128660193 153 117 33
-0.0005263932216793 -0.0048922969224116 1.3068123768096114 163 137 26
0.0104651525721439 0.1487962163326660 1.1890065942167516 255 207 144
-0.0103403918141959 -0.0174551835912894 1.2606730495504972 128 86 28
-0.0074970315759842 -0.0111721332205798 1.2971826602879029 169 127 43
-0.0086145359205815 -0.0246620045116052 1.2514417173783212 176 134 36
-0.0139883197148477 -0.0183543570605090 1.2866575112793881 149 125 0
0.0174570233731833 0.1532670448010683 1.1940983228083646 219 165 75
0.0093945763712976 0.1492807601827483 1.1868675767332439 255 201 121
0.0491148972779161 0.0093554613060209 1.3304609383624546 154 142 22
-0.0049548066757610 -0.0081383915032310 1.3002164703233101 170 153 3
-0.0140046686386091 -0.0180908796950474 1.2859030096280131 176 157 36
0.0098686527536061 0.1508725060338796 1.1874595123551543 254 203 112
-0.0060008950682588 -0.0029792427932824 1.2773786828844005 150 114 30
0.0109443397836474 0.1539135941065224 1.1870241048059007 254 205 136
0.0065125642625832 0.1488142318261344 1.1782078616663909 201 140 59
-0.0056341663859830 -0.0076683716084156 1.2968199241988014 149 115 25
0.0030849487226176 -0.0305876630228213 1.3261248476973142 160 130 34
0.0031460883317255 -0.0305358711717238 1.3262118462490851 181 144 37
0.0091012183725415 0.1541473735861759 1.1849312863396311 221 169 85
0.0055676428408250 0.0098487998911090 1.2915611002743914 99 58 14
-0.0151365893073952 -0.0210482320526391 1.2772519929718646 226 206 59
-0.0077906116244520 -0.0162611295969946 1.2557847968482485 164 143 38
0.0063351116399016 0.1502613411966313 1.1776239076337269 186 124 63
0.0065713492470647 0.1508257912849417 1.1781719133325124 255 211 134
0.0064008543763238 0.1515720863710883 1.1779452102546739 239 188 99
0.0067346553272695 0.1528597542791943 1.1793968871346008 232 174 74
0.0162309387044732 0.0084322509130678 1.3176735713109013 195 174 55
0.0076741736490562 0.1546392555002591 1.1820305867411647 225 167 67
0.0364913855079371 -0.0206723622384535 1.3428073572081072 174 146 20
0.0434749685816125 0.0243297670045512 1.3135892869352552 108 92 4
0.0077764491494515 0.1553620202257518 1.1820355719998965 231 171 83
0.0075657017812690 0.1549237442053062 1.1814539779113067 244 193 112
0.0063185731241445 0.1535331412494813 1.1779901299173050 195 140 57
0.0537442311554688 0.0130156015940485 1.3271475942721547 166 148 10
0.0096620851174289 0.0055518608891754 1.3111125419521812 130 96 25
0.0088011747548061 0.1569880297228606 1.1834580189601778 255 207 125
0.0116914519834382 0.1595176748149927 1.1869980414011181 255 200 132
0.0057801478025495 0.1552686557750550 1.1752021106635511 215 159 82
0.0040314233209590 0.0087584744991221 1.2835978476348753 133 98 14
0.0115942030158972 -0.0231742228986934 1.3318707658383810 163 124 33
0.0069470146571750 0.1586288828275297 1.1789763349284104 238 187 122
-0.0035283256930818 -0.0028847849363108 1.2938452707295029 138 107 27
0.0064301524302124 0.1581217170581292 1.1779870111815975 245 197 121
-0.0044500234775102 -0.0053203386069579 1.2619237655374538 168 143 43
-0.0030503641091565 -0.0135562127787851 1.2476474858934536 155 111 48
0.0194870459917458 0.0211090660584835 1.2957205248272416 123 84 17
-0.0118408167817320 -0.0149079339482692 1.2729961349641163 172 146 33
0.0182258338893566 0.0203858989590999 1.2939277406701668 138 100 25
-0.0109861357203061 -0.0127796396516862 1.2756017250163616 164 150 19
-0.0056471622584804 -0.0035762169340370 1.2878293740484599 142 114 17
0.0199380263194073 0.0218243084498759 1.2932580036404344 130 96 7
0.0371524761461339 -0.0151297441167350 1.3413735989636240 165 147 13
-0.0122477575072672 -0.0201876510206619 1.2639477851702892 147 112 31
-0.0075478907836322 -0.0054027285391288 1.2831358749621544 153 119 19
-0.0143351538254783 -0.0533266081283632 1.2838869142105946 179 143 46
-0.0097202458336872 -0.0100387196110067 1.2750862307178925 134 115 13
0.0089868775434145 0.0096631013428188 1.3029208224355013 144 136 3
-0.0100516046997515 -0.0107125714269990 1.2740320120846209 223 196 55
-0.0109678387648297 -0.0131025354564284 1.2701643600337293 116 91 7
-0.0091292969858163 -0.0088234667759296 1.2755780830348808 160 134 15
-0.0091015150660509 -0.0269765807047019 1.2512253581701205 187 169 41
-0.0025650502875014 0.0011473361816840 1.2860231159617774 158 139 18
0.0297703680849074 0.0203164316635355 1.3145912672248754 203 191 57
0.0509868304695897 0.0213424060412207 1.3184034528851447 138 127 11
0.0296555139937679 0.0281442032255034 1.2872677660090077 148 112 15
0.0320784363050738 -0.1193421847109797 1.3492361636290600 165 166 3
0.0388298853579546 -0.1163382459303372 1.3508011426198430 178 185 47
0.0205651853121500 0.0183600304959735 1.3079673839013775 169 130 39
0.0499664408676380 0.0325105296913034 1.2900635151270605 181 158 64
0.0368706032814479 -0.0106106357372945 1.3395654492004507 206 205 27
0.0432169031418565 0.0318900449727157 1.2873074254797756 154 112 36
0.0333747543776511 -0.0096300583831656 1.3390825835659457 180 154 17
-0.0051345931896671 -0.0027163864728860 1.2696186583564175 155 137 29
0.0375698133466615 0.0252323263006174 1.3103980276458858 159 145 14
0.0309076383669488 -0.1028927914385979 1.3430325266682459 189 200 36
0.0341379001192016 -0.1011471905313101 1.3447784997341914 154 159 0
-0.0048016293587564 -0.0040372335439930 1.2643438618646017 166 133 38
0.0370819458046845 -0.1006374334458564 1.3460658093019011 188 195 27
0.0335819799936839 0.0090039632712645 1.2370206469326710 228 209 195
0.0351365547998298 -0.0983028341509345 1.3444876564049026 151 156 4
-0.0032522946136955 -0.0028656582124796 1.2616406808391161 207 162 79
0.0453956336957723 -0.0909022228743192 1.3457171936042158 183 195 23
0.0205166403532589 -0.1064763956177714 1.3220097244969977 201 198 55
0.0229776198932359 0.0241437797609397 1.2956813262256996 143 106 15
0.0222468441377267 -0.0928290380784434 1.3320549832857727 184 181 48
0.0416770437159316 -0.0832049064072271 1.3437887557447072 146 157 16
0.0498315878342308 -0.0818159896186586 1.3447275653412818 158 171 19
0.0434874213689223 -0.0791311898234724 1.3438681413618392 167 177 16
0.0268719645411896 -0.0822836966658756 1.3363973094956998 154 165 24
0.0328745183838727 -0.0798063415155344 1.3399261923890911 182 188 38
0.0269362246859170 -0.0782957833096677 1.3362978269801866 171 184 9
0.0185635053439832 0.0580672011199792 1.2377505218946092 239 192 122
0.0139078170360876 0.0556770691503307 1.2310854103402653 235 175 89
0.0131651550706273 0.0554466376090488 1.2301159715357883 255 218 140
0.0361021660743560 -0.0719272310118836 1.3415548746913766 178 183 41
0.0167708981260279 0.0612336918043644 1.2341539142881692 240 184 125
-0.0174392565149336 -0.0318393738608724 1.2853019797477527 184 150 53
-0.0170268545428317 -0.0307918651853790 1.2849536664419237 182 157 39
0.0225627034345567 -0.0656329939852422 1.3351294985571200 177 181 24
-0.0130023580563227 -0.0214244125094126 1.2959657789973746 197 195 72
0.0125469909488280 0.0632551533513292 1.2244722130579164 255 218 149
0.0423906571905026 0.0027012141740101 1.3343637896994931 175 146 28
0.0504114889047238 -0.0586067818547808 1.3442693747790464 142 136 24
-0.0156298000112544 -0.0410116153968642 1.2703471343953681 241 232 101
0.0148152314586061 0.0726488795395236 1.2268664040333890 224 175 106
0.0158798642410455 0.0776941645044273 1.2257044706183791 252 204 132
0.0137693762627747 0.0772222234502651 1.2230873299315153 211 163 79
0.0149106037196011 0.0788157742017886 1.2237669287959154 255 213 135
-0.0145098007077997 -0.0205978204113341 1.2875092925726259 186 172 23
-0.0141507022051244 -0.0389737018314997 1.2635833026832002 185 177 44
0.0467197405382351 0.0087251624369732 1.3313699118060713 165 160 32
0.0131381188486379 0.0818183411953663 1.2191479769946123 255 215 146
0.0117201656447248 0.0782824171291955 1.2116136988314634 220 171 92
0.0131986088836505 0.0828075912975282 1.2186309064844318 254 201 133
-0.0158064714474686 -0.0230586373572697 1.2796358847208062 183 158 31
-0.0068910620108829 -0.0099065369853985 1.2969192360432746 162 128 28
0.0128290155191265 0.0867822727950730 1.2160104036307651 232 166 82
0.0135889081794408 0.0050455126139311 1.3181396195443205 161 150 9
0.0235683293316896 0.0936167013874569 1.2240492451363083 237 177 89
-0.0154597061351925 -0.0215225315636158 1.2797725078642792 212 181 29
0.0113178478217133 0.0872716034089261 1.2104835287863784 252 201 118
0.0155194783852094 0.0930789920067371 1.2183759171356785 247 186 93
0.0155447671633013 0.0930397970815292 1.2183657417742633 232 172 76
0.0182343849457657 0.0946620748026799 1.2203636745059852 221 172 95
0.0125937475858949 0.0918376181456505 1.2139377503329492 255 214 158
0.0182641372300058 0.0960713583690457 1.2199164506729763 171 118 50
0.0128148617082859 0.0935742472791610 1.2136487997239758 172 113 37
0.0123045839873573 0.0067136787739047 1.3145702154853718 184 147 33
-0.0133663107108843 -0.0170377999223629 1.2802449238263778 204 186 28
0.0371026230244388 0.0129682036709144 1.3258692273192392 178 164 42
0.0177592581101751 0.0092448110426697 1.3175998756848060 163 143 10
0.0025262446559775 0.0011779189665165 1.3040700426217842 141 112 18
0.0164432978065906 0.1005949598654352 1.2164284592578021 222 166 83
-0.0143874074203512 -0.0212077994616424 1.2714791502997371 156 141 40
