ply
format ascii 1.0
element vertex 701
property double x
property double y
property double z
property uchar red
property uchar green
property uchar blue
end_header
0.3330182782535179 -0.0330253412288830 1.4637297018709388 246 204 156
0.0692441840411146 0.3613441899847404 1.2634652722771407 77 44 27
-0.0992554371943351 0.3387136485692895 1.1709574973517292 183 151 128
0.2982987029871524 0.3949241942278517 1.3734907926679798 169 131 108
0.3221700467747291 -0.0196772051459102 1.4387074543025369 159 97 60
0.3328551975275421 -0.0008162786836869 1.4719852146080321 142 111 82
0.2387900391796534 -0.1392105761384490 1.3692023841030554 211 174 145
0.3214210402753326 -0.0042737281443795 1.4291136459662608 159 122 77
-0.0426565311255949 0.3354297510051247 1.1732884868481319 187 146 114
0.3493917251807304 -0.1104203713014605 1.4434970027368181 172 130 92
0.1311016225322672 0.0274014816461880 1.3971951594708449 71 37 25
0.2145733536361567 -0.1286534708081950 1.3647080711701263 201 165 141
0.3289026875418438 -0.1053324274251315 1.4132447260727083 169 127 89
0.1069210771295790 -0.1381698186110173 1.3204413976677329 123 78 49
0.1981632123677377 0.3397145230832593 1.2367282426046518 171 140 111
0.3408279209915402 -0.0878933095774443 1.4342638367989522 236 191 152
0.3401142695935728 -0.0864618438807332 1.4315439897801654 123 84 45
0.2666843593108368 0.1662079453321533 1.4080125544195305 217 179 143
0.3401515891391089 -0.0826029128365091 1.4351293192487389 120 76 47
0.0361336089111131 0.3553587961829401 1.2011427427926871 162 127 97
-0.0268580411168284 0.2071851131520336 1.3701911697385865 156 124 109
0.1688503898600506 0.1641268635831761 1.3165359322877814 126 83 41
0.2679386359945687 0.2748636526709732 1.4781066617272376 134 99 59
0.3280699631845668 -0.0265563065228942 1.4492316483236725 230 182 134
0.3452011009126645 0.4306113052164985 1.3774057160273849 62 24 11
0.1288552555362792 -0.0395645754120377 1.3838719088629547 252 219 212
0.3188874435622447 -0.0196930048049643 1.4331541448657752 178 133 78
0.2394490581188169 0.3711205508970404 1.4046002483743378 162 125 96
0.3093837000380573 -0.0095238126214473 1.4208139639329538 165 121 84
0.2946864504956366 0.3832579701189071 1.4100722030034802 165 128 102
0.3562379528674117 0.4361884250404718 1.3824871805983865 111 77 49
-0.0159696946475280 0.3489586329118978 1.1425951317071092 144 108 72
0.3225252803121800 0.0035048929554464 1.4287427719806851 152 117 77
0.2221258019597294 0.3541947642663047 1.2262905647532101 85 33 12
0.3297731462972678 0.0162044414237377 1.4485238435886874 121 78 43
0.3240132968188709 0.0397471629644701 1.4347770659324615 201 153 105
0.3125485791706240 0.0455009406040411 1.4223897805124130 104 69 29
0.2104530672121772 0.3390196234898316 1.2627639729886739 123 87 61
0.2144273618809691 0.3419938969464476 1.2644054104621989 196 169 140
0.2154778393890912 0.3470350061472927 1.2040169897516844 158 123 91
-0.0700096018368112 0.3368282107052945 1.1660400162490439 144 104 69
0.1984866991434724 0.3352875978520065 1.2458361357544971 118 86 35
0.2940404429061743 0.0628904504492105 1.3935774065190478 190 153 111
0.0067047892216077 0.3586526037764515 1.1497060181494847 119 82 55
0.2167487952474855 0.3461094703362892 1.2584362454222739 131 97 62
0.3091925238153682 0.1132754762341653 1.4322988184479535 149 119 81
0.1739398152534604 0.3447274665301379 1.1823770597217877 121 67 39
0.2191258926960161 0.3488609016920178 1.2560068647790890 197 151 117
0.3343951034738307 0.4139415872406232 1.3814871674873574 180 151 133
0.2978085162398048 0.1134191521180329 1.4109738027745968 175 129 95
0.2998374409175476 -0.2439089196085565 1.4306273069738376 113 72 52
0.2401296597846483 0.3563446067712326 1.2120856065604166 133 93 58
0.2741323338780475 0.3876803740093932 1.2615343030254800 124 91 56
0.3227554351336296 0.4125370496048152 1.3094459637807192 137 104 69
0.3819411018516762 0.4621371978394309 1.3898712446892054 156 122 94
-0.0526290923802738 0.3438562250839932 1.1402236182135286 105 80 50
0.2993848182142864 -0.2173126326003459 1.4130280800000261 156 121 101
0.0132609106503949 0.3539125202211475 1.1733127608662717 119 84 56
0.3045642741365710 -0.2155463504733519 1.4132162925660137 172 138 101
0.2303146867015732 0.3546926444740655 1.1926316166286679 161 126 94
0.2243482725506917 0.3537682295156222 1.1876935727615501 146 111 83
-0.0042349521730333 0.3704268993011457 1.1318410363496880 146 120 103
0.2421239125070562 0.3597641493381425 1.1989859765186568 122 78 33
0.2135619215584051 0.3514643336553793 1.2212129439166002 153 113 77
0.3421711195637200 0.4236642257768578 1.3122488547933540 162 129 86
0.3458908064128716 0.4282082936055584 1.3656247741375265 177 134 99
0.2061266086499837 -0.1971572524020483 1.3868272747064991 162 120 80
0.3102556208722642 -0.1825686659014955 1.4028197443460586 184 138 105
0.2532043991645286 -0.1879033480414984 1.3804145551409501 182 139 105
0.3012335098499564 -0.1771019447979846 1.3963564921165337 212 168 129
0.2100195103486612 -0.1851382195336117 1.3774655771756894 122 72 37
0.2788960809978030 0.4061972038400828 1.3092207808025860 190 149 117
0.0833389464445138 0.3687975983800146 1.1937672640359420 147 105 91
0.1864588361781437 -0.1748682962488851 1.3726817113519139 151 107 70
0.3299286058977427 0.4221155229878353 1.2903445864559087 171 132 101
0.3524807171904005 -0.1278832882834395 1.4500712694697815 241 200 148
0.0255755745557915 0.3901337978227593 1.1466864242627912 101 64 37
0.3103102869514083 0.4103576202399169 1.2674538196986931 211 172 143
0.2871170922584363 0.3904849654179470 1.2322195479423574 104 69 39
0.2135543361336391 -0.1444689476044110 1.3682242679709415 162 117 78
0.2117716914430146 -0.1437002287834524 1.3677125265184615 211 163 127
0.3508521614221858 -0.1117538242794315 1.4545190873664093 127 88 57
0.3492919766047874 -0.1082459453084991 1.4561970766632619 181 142 109
0.3481235694173972 -0.1012708606400097 1.4709969344938190 183 138 96
0.2193356511184079 -0.0991564826537958 1.3678213915818311 165 136 104
0.3340860506665924 -0.0728914706083462 1.4285560010628269 227 197 163
0.1446492608537321 -0.0872668416568232 1.3541494230115414 145 95 72
0.1480770332073914 -0.0851691948611041 1.3548284862071167 59 31 17
0.3211770336253937 -0.0297707707666679 1.4365749255064908 211 164 110
0.2245731754575823 -0.0354144943863704 1.3909610178231657 123 83 58
0.1816365145268709 0.4134461759095080 1.3784906777625767 138 99 60
0.2948853452307099 0.3928020425733528 1.3765162384497844 187 150 131
0.1730049122841947 0.3270323206774391 1.2429665534983976 190 164 139
0.3223720091900875 0.0133514983534167 1.4253785552927867 210 166 129
0.2734220585369502 0.0371132841642591 1.3821906693413393 215 177 128
0.3030500094507024 0.0510899315999928 1.4068620666783380 222 178 139
0.3241160270547527 0.0686755445802487 1.4547635079485552 108 66 50
0.3030605553887372 0.0539347416170550 1.4047860548880258 214 177 135
0.3208840392920004 0.0677975611497567 1.4380547346415602 146 102 55
-0.0358330832722070 0.3364439975587062 1.1654498372157642 142 125 95
0.0675093840996816 0.4559098583082434 1.1528661383980614 137 88 55
0.2184347157921385 0.4211971043452911 1.3605447987317447 156 113 79
0.1037534860311611 0.4716479144688896 1.1700211530022802 163 110 66
-0.0099864183401164 0.3398100118634189 1.1657032602627060 112 86 59
0.0405498600197368 0.4751072519403681 1.1369914192724511 147 94 54
0.2367728121321976 0.3682556813910571 1.2599321273804551 185 150 112
0.1706013769480429 0.3458092045185472 1.2009997175247968 163 126 100
-0.0864166872586158 0.3598708413488128 1.1140844685867795 111 67 38
0.3742712257025513 0.4510322952043073 1.3849657390384886 150 120 94
0.2381420741073588 0.3552083909044433 1.2104739554842452 158 117 99
0.2515945997268459 0.3625669116258823 1.2131571942850992 109 54 33
0.0391112845482771 0.3910483764619739 1.1607754904364529 115 77 41
-0.0491987095483931 0.3734403852884662 1.1061169506913049 140 118 104
0.2665851101577706 0.3743205013787363 1.2096796455365628 183 148 106
0.2220229722872991 0.3810285806286868 1.1610546531178423 87 42 23
0.0616956538828441 0.4802239924727443 1.1439537496257399 193 143 110
0.1768114207035314 0.2593126704837062 1.3045123282766677 123 82 50
0.2803195861714264 0.3820878638314112 1.2390306710553545 175 143 104
0.1517818328969583 0.3868237877531985 1.3894627913903501 137 101 67
0.2588379655375773 0.3692722081552304 1.2124982895525356 50 20 12
0.3074080348989847 -0.2898704763571003 1.4689200153714559 78 33 12
0.3027353689590711 0.4063451875818778 1.2660201864730096 95 53 31
0.2946843115881912 -0.2850748273854903 1.4606797530109805 187 150 124
0.3187651983673345 -0.2790318587606332 1.4722999700771799 67 39 18
0.3083284755575119 -0.2610677119351255 1.4474945337469267 129 95 58
-0.0219621829746727 0.3386174942252388 1.1936596104144646 73 36 28
0.3010195380217541 -0.2269503885765800 1.4194404811368888 111 70 40
0.3367218143365236 0.4347527340335462 1.2864660827338732 72 32 22
0.2478409980777971 -0.2557633185508115 1.4114591266002796 189 156 125
0.2575857035776420 -0.2460406502030424 1.4022883901438283 191 163 139
0.2811589894881148 -0.2394201859698469 1.4162913967682329 184 150 123
0.2969007433659056 -0.2019825665444143 1.4030897545135044 180 147 104
0.3012234303218707 -0.2010717777597092 1.4050289592009892 124 93 62
0.2300301095455178 -0.2227265607722228 1.3870936725356768 86 44 28
-0.0611270537293736 0.3399796161282495 1.1521035105194923 161 137 127
-0.0577460813877902 0.3404541469862988 1.1535475554704080 101 73 49
0.3010084061368129 -0.2046286607497756 1.4068570797459741 199 159 124
0.0638680667936577 0.4461002126820088 1.1555660493817352 186 140 104
0.2233808107464504 -0.2058976270162897 1.3864711424723781 245 218 211
0.3405487442611267 -0.1549681641712027 1.4229604611642870 197 145 105
0.3402010568393058 -0.1479404679643188 1.4194395964618693 200 155 116
0.1776191474084129 0.3449311476296579 1.2101277749477841 207 174 143
0.3357830945856012 -0.1404301077221425 1.4106452410266821 198 159 118
0.1934809978540459 0.3447671156178975 1.2109414690761517 207 169 148
-0.0708045181792814 0.3472795069193216 1.1262021905612372 108 74 46
0.3455207337246191 0.4283890453998265 1.3621574821096121 77 45 32
0.2168907901551993 -0.1304752343098041 1.3661206583991163 149 105 58
0.3291120736127549 -0.1017714204344113 1.4144150291594173 142 100 60
0.2350236040447930 0.3552999605510878 1.2162150535572291 66 29 13
0.2349135074482863 0.3550616998238767 1.2163443499690474 87 40 22
0.3513643386292270 -0.1176629934801261 1.4441505526276217 179 142 97
0.3527118397720154 0.4288097948807587 1.3462855589756888 166 131 93
0.2119629179939358 -0.1356658814447466 1.3660481516345979 148 115 82
0.1974516812799415 0.3482556686238580 1.1881021665408518 104 48 21
0.3744744667738398 0.4528026797385296 1.3820523282346584 45 22 14
0.2052590608701063 -0.1258121201165072 1.3624362649886392 203 167 133
0.3140659092284904 -0.0233140880130962 1.4287785838138134 135 96 57
0.2657121376751405 -0.2198005192958353 1.3898093462807990 196 160 126
0.1292017221591677 0.0202558806264206 1.4026918299699134 137 108 78
0.2869354293324490 0.0271827088386207 1.3966345070035258 234 186 137
0.0333062454377659 0.3834752476783843 1.1535391797877050 136 105 85
0.3681747677994624 0.4430116463670777 1.3410422908838289 49 21 9
0.1679561199342899 0.3564786227072018 1.1626923396627997 142 122 95
0.3093399502374497 0.0511104875920898 1.4154457229204891 174 126 86
0.3204652181054663 -0.0148834622352814 1.4351628304590331 175 135 86
0.2783936788352339 0.0425851749566716 1.3841051413905432 142 111 65
0.2771812570933518 0.3806869830794141 1.2209990055997793 113 74 43
0.2971964722354221 0.0679252467603256 1.3960584045859270 141 106 66
0.3489488919392366 -0.1473991212326037 1.4362336019938200 221 173 135
0.2228426118707766 0.3644619227353592 1.1716938093768359 151 112 79
0.3043216179608930 0.0108756940067576 1.4131627574148966 214 166 117
0.3111091796220799 0.4188044819086107 1.2599118064345309 131 88 54
0.3273331435174409 0.4321071900214846 1.2730199152367956 43 22 19
0.2217211200991808 -0.1307295781291544 1.3666025478329249 219 185 160
0.1643485844722792 0.1516544809916955 1.3171654088249416 178 138 103
0.3247221869907012 -0.0149193091216312 1.4407830493966056 254 193 139
-0.1152319427626855 0.2846145825831812 1.2993801770548867 77 42 20
-0.1209129592765526 0.2813239187259128 1.3041566812976368 172 139 120
0.1683745813953000 0.3453981730661820 1.1927781329206513 133 85 47
0.2156100500238881 0.3500057878734550 1.2138170343991330 99 49 24
0.1622474023760667 0.3924206720769305 1.3926982479853947 114 69 48
0.2131240130561163 0.3458218940091288 1.1994010209781347 174 137 110
0.0654268344748531 0.3541362663975763 1.2674313059330884 52 19 2
0.0392449160413159 0.3600364028921210 1.1934842939044998 181 146 126
0.3021878379878799 0.4069572904555955 1.2774230462676606 53 24 8
-0.0287732320592093 0.4349569153007546 1.1373840840021747 176 125 82
0.2127298270923338 0.3496782091632936 1.2345843950729283 185 136 96
0.2984849263460660 0.3852097951173533 1.4088729905260040 233 197 181
0.3108428981302971 -0.2374766062389852 1.4281060222720086 154 121 88
0.1921056153322906 0.3438048928811196 1.2262878377349948 184 142 104
0.3211861819481004 -0.0576810300325411 1.4215432014549072 112 76 50
0.3011790428961528 -0.2436433862199785 1.4302433944463488 110 69 47
0.2505568748290051 0.0930880530463049 1.3634760005929980 128 86 48
0.1641336323914703 -0.0853123240959320 1.3617360567387131 42 19 13
0.0551833568201829 0.3438271896398122 1.2789444334184679 86 56 28
0.2001953320515465 0.3463060208643943 1.1951362336312612 149 110 71
0.3108732840443208 0.0527046548752584 1.4151439798948586 203 159 114
0.3159266758675933 0.0340370965015407 1.4244267518754918 134 102 64
0.0273047562725635 0.4422282466415867 1.1449899156161412 204 160 115
0.2962848806802189 0.1306850986403822 1.4207473270479356 160 122 85
0.2884027577584227 0.1546053772689654 1.4526372413605702 180 144 110
0.2357662135871642 0.3539858697727237 1.2113771339366983 118 78 42
0.3482750333222009 0.4311525312075132 1.3705656354084974 185 151 114
0.2806062115220265 0.4040665249254237 1.3008580451464167 191 158 115
0.0368123290536986 0.3821973244626229 1.1578674280029462 193 167 142
0.2034775033885906 0.3500787563225248 1.1843532736319153 148 117 73
0.2659962221575375 0.3831315456556107 1.2590255783427879 91 38 22
0.2579560113652014 0.3659968536913448 1.2309233476831263 161 131 95
0.3409366542616706 0.4253738083523249 1.3518392306523153 180 149 120
0.1922758766119657 0.2348863524577962 1.4202646686006202 115 80 40
0.3012785374585755 -0.2902176224588522 1.4662049407842008 127 89 52
0.2589043493971965 0.3674313106279327 1.2309456673680881 105 63 39
0.3685022458976447 0.4463402633013437 1.3880829628379263 118 72 38
0.3507812588022652 0.4294513634893689 1.3526959169250050 201 162 129
0.4021484524271601 -0.2471115928931437 1.4269747385278533 168 134 106
0.2752638457820047 0.3793401585488104 1.2450161533414523 134 93 61
0.3337551097496187 0.4179092817080164 1.3241519181098629 216 184 145
0.3321783800904526 0.4167121611568196 1.3194955207591883 150 116 81
0.3728557910732985 0.4491520481415417 1.3821595676917111 187 145 105
0.3460540624213274 0.4250568739971939 1.3343488201261875 75 39 13
0.3457231382663922 0.4253556515402033 1.3347044033559841 75 39 13
0.2942150032738357 0.4053804606031803 1.2834267511402091 154 107 65
0.3341531618187064 0.4176260092343865 1.3182742455999896 216 174 136
0.0531136027369801 0.4010410623049170 1.1663495825904462 142 105 89
0.2452896305896053 0.3612037144787526 1.1979744821817717 166 136 110
0.2412568451143826 0.3605909108495953 1.1943318421758704 100 50 23
0.2070609765551550 0.3076220332054770 1.4281951328211078 131 95 63
0.2958586860944603 0.4003099005132366 1.2728141471710601 174 136 100
0.2955582877740388 0.4006240826290253 1.2708299884243925 99 44 13
0.2537333190351018 -0.1847582998728952 1.3792587699169001 196 156 130
0.2990537215138690 0.4025306779562435 1.2730677278286389 197 176 133
0.2537725918385919 0.3661120089989593 1.2014919697058655 162 113 80
0.3521238701521717 0.4265069865741504 1.3287259052555278 181 144 102
0.3552908092016616 -0.1554994921664871 1.4518884101921599 145 95 60
0.3500089975017212 -0.1503025439120641 1.4391050078979812 163 112 65
0.3766529599511340 -0.1889743104900478 1.4419356470778233 130 90 39
0.3776497418067564 0.4517863739900539 1.3693997825673487 170 140 112
0.2731819907708876 0.3777922725829047 1.2199014289864032 153 117 95
0.2452368875765427 0.3663733737685637 1.1901382521532942 161 128 87
0.3857196947548485 0.4732263606675548 1.3989200784440383 216 200 184
0.3614335707009648 -0.1633184048133978 1.4724809137377073 204 156 116
0.3615638799029463 -0.1651118574098390 1.4481346524901419 75 38 12
0.2813735903699246 -0.1501111526137431 1.3789435030623651 196 162 135
0.3613627692076590 -0.1642340043300151 1.4539518329507306 142 92 59
0.3857064990205790 0.4724566958199050 1.3936512463907458 180 143 134
0.3344084792908050 0.4213743890980783 1.3003926955353544 178 162 128
0.3602474693528532 -0.1621282065385982 1.4505906059272484 91 55 33
0.3502536664801206 -0.1299672350506718 1.4357718297789785 236 191 160
0.3536227130480333 -0.1260572117773740 1.4546277746006766 174 136 99
0.3569089243589636 -0.1574209673352795 1.4530779586236893 175 136 93
0.2741001358342217 0.3801337120877488 1.2107454300945655 157 128 88
0.3451824140506032 -0.1296144399316292 1.4242578616427048 165 125 89
0.3468375966766903 -0.1284918243350104 1.4282505309505413 162 124 88
0.2807032244973118 0.3868822613364600 1.2209518540758670 164 123 91
0.3516131334136133 -0.1247006455260908 1.4400755423709295 150 120 96
0.3498896538240707 -0.1447735494024583 1.4371060245242684 188 144 105
0.2521840151543575 0.3730872997416502 1.1874754827108367 162 124 85
0.3546209600654984 -0.1299469987681728 1.4837017644230204 152 110 62
0.2953405402165929 -0.1369529976034141 1.3862967426341193 196 165 137
0.2650709880580202 0.3791674158393392 1.1979519118040181 152 119 84
0.3529746212577149 -0.1217751246141617 1.4992194950413893 233 190 155
0.0559730392494979 0.3523602291656068 1.2423664101821466 140 105 73
0.3836205039774362 0.4728065302917809 1.3747976318690835 145 110 70
0.1920993834865124 0.3731619722170581 1.1507296849345598 90 43 25
0.3340373309081022 0.4274438532042475 1.2904384384884136 76 31 8
0.3462986331985545 -0.1317660967925740 1.4265686066963263 245 200 177
0.1577951825768369 -0.1495494084377057 1.3449764504534905 191 160 129
0.3496160520709899 0.4339142333667302 1.3038742449969165 190 173 147
0.1760687553880113 0.3263295275198586 1.2444319002717086 131 94 65
0.1729463827138961 0.3271480587929081 1.2430400498059047 210 177 146
0.3118994997479505 0.4172192647495568 1.2617465390257321 116 73 38
0.1958345511934046 0.3295400101630719 1.2547940200493488 136 92 63
0.3441433903545746 -0.1150108070549124 1.4281893556471084 160 128 90
0.1415461345249866 -0.1433262051445469 1.3342521852739149 204 168 142
0.3287476844916963 0.4284421133379130 1.2774287188150455 177 141 107
0.2883180003859023 0.4010393058278426 1.2211043426257897 106 60 27
0.3179490203346799 0.3938633994639770 1.3968593111007905 86 49 20
0.3135594657978978 0.4217738092305277 1.2600401255102418 91 46 25
0.3302357382598371 -0.0996982391734010 1.4151447011091394 242 193 160
0.3406220298471081 -0.0670146764138970 1.4754937717602619 236 195 149
0.3037013524963477 -0.0822192813751026 1.3949297928610744 202 168 133
0.3101191453430852 0.4230291309490360 1.2513554545024583 191 157 122
0.3442648945941011 0.4402732813802654 1.2890918133660123 151 116 88
0.3001538839145508 0.4156895144928669 1.2352831631935677 148 104 57
0.1616269373551355 -0.0828323932050483 1.3604489048325459 130 81 48
0.3040020061628441 0.4196274901909359 1.2361730622528542 179 145 120
0.3353686954740114 -0.0395825891701291 1.4734031678286703 177 132 91
0.3259363866922707 -0.0467983226030808 1.4343784525764058 117 81 49
0.3185400146866727 -0.0411392460753555 1.4290059220128772 199 155 118
0.2894851655044898 0.4103189834587895 1.2135593033936953 226 211 182
-0.0282351474205828 0.3429639257108034 1.1443437664151750 196 174 160
0.3310370780810097 -0.0187735365424929 1.4658171556781963 190 142 93
0.3326324338150924 -0.0209474605009808 1.4658985767335990 199 150 107
0.2224083210984402 -0.0450311364658000 1.3882845680941664 95 53 37
0.0303904862776941 0.3581119999765803 1.1913697354959860 149 120 78
0.3812307649419778 0.4795812061367283 1.3428043547308040 157 128 98
0.3218404395159423 -0.0185768205395584 1.4375879556907716 235 184 139
0.3234014562158959 -0.0089433575473577 1.4359140454949273 134 78 43
0.3217881151788778 -0.0084422811721765 1.4330701438232802 243 189 143
0.3239630018476503 -0.0075061214608017 1.4356611408572497 226 174 124
0.2899741683511088 0.4159282769677879 1.2124848353822502 190 168 147
0.3271489052798508 0.0024447194700337 1.4350250991255793 220 184 160
0.3305598993574899 0.0086846160514221 1.4434188524661011 124 90 52
0.2691547776322851 0.4106583300828200 1.1934764501531363 81 44 15
0.3863532138618337 0.4967658380065108 1.3589906100661406 105 72 39
0.3285581051159170 0.0307505205421648 1.4530563598736814 213 168 127
0.3652846641647213 0.4836910859720762 1.3247469898896795 146 115 84
0.3155457499492714 0.0448193196981572 1.4256620542721081 129 88 58
0.2221611524492925 0.3529099214445284 1.2551347826564165 103 56 26
0.3036497163445418 0.0528667471612045 1.4063294571569263 169 130 91
0.2782470735527557 0.0551116172916747 1.3787917639869036 115 80 38
0.3255263266336524 0.0160163490256147 1.4354149551265172 149 115 78
0.3025930462058526 0.1250605326321621 1.4299233981542665 171 141 107
0.3289419254491188 0.0361088940877379 1.4525376381235175 229 180 139
0.1282832222126832 0.4980105082080792 1.1841045168524065 143 86 43
0.2215677648044557 0.3541164595766444 1.2407788070754040 187 160 133
0.1461789691525973 0.3463385161479469 1.1959453773782589 100 43 13
0.3120448563302117 0.0535530242167826 1.4175962053005788 190 144 110
0.2309382444113242 0.3715446962090642 1.2698452696278362 145 115 87
0.3199247647602460 0.0655224473956410 1.4322063885990892 216 169 127
0.2497915736718224 0.0510369847172589 1.3699452897662869 155 119 83
0.2398971682719410 0.0547782952529055 1.3691198350942950 159 122 78
-0.0407485773637655 0.3268534671241497 1.2239032591063199 106 72 44
0.4131885137224462 -0.2743292360636230 1.4376818228765098 236 208 171
0.1936491541026726 0.3273620811085666 1.2581619824159420 201 159 119
0.3163220689218569 0.3997264864496438 1.4192454118311046 181 146 116
0.3377276768904331 0.4282457554354420 1.3743510645500405 89 53 21
0.2138372805392717 0.3486868554299632 1.2898717521463234 85 40 17
0.2862050086757432 0.3895986160806256 1.3821352124828630 171 140 109
0.2142464167725242 0.3483406312299469 1.2871542294174561 180 144 112
0.4041416939793552 -0.2456459593088136 1.4323350683951208 214 177 135
0.4030730876776936 -0.2417074511603502 1.4338118285489267 206 169 124
0.3394164876318151 0.4257191588739244 1.3557428088977217 108 57 26
0.0291209395402608 0.3561880606439681 1.1945664464758734 157 126 95
0.2979022954126253 0.3975246731113589 1.3683208313926840 138 103 73
0.0049876873449944 0.3825475481601866 1.1380884863200340 215 180 152
0.3809032380270511 -0.1989030275352998 1.4351525432437695 190 147 105
0.2227141920631858 0.3509963231343965 1.2638936646608989 132 89 55
0.3504694514406336 0.4300320882673039 1.3611910363582620 190 156 129
0.2190418943892088 0.3489137016715932 1.2560220639160835 182 143 112
0.3033627937045356 -0.2024021150220421 1.4060992438783575 128 93 61
-0.0191893642355035 0.3832082066590173 1.1246166833612705 206 181 150
0.2724505527739287 0.3796401408836835 1.2484096984204502 208 182 159
0.3573086215742209 -0.1533758684065768 1.4735611771433859 127 78 48
0.3564685357447533 -0.1551218065295662 1.4568674121998286 108 64 39
0.2329173829063900 0.3727360905710776 1.2729788100570221 144 107 65
0.3654176055267610 0.4372782062876227 1.3602452331559434 169 138 107
0.3638512562033818 0.4371956031367212 1.3586322332138723 100 62 26
0.3306234579795744 0.4148454511820406 1.3123047331377111 157 115 75
0.2185868515543531 0.3520519953433622 1.2274728458124333 160 116 91
0.2887000707743844 0.3944480374514777 1.2607542495227191 170 126 97
0.3824387185433722 0.4627133327183703 1.3932694141992672 62 22 10
0.3003806277432365 0.4044611681816597 1.2693458144134897 181 147 119
0.3002694666531973 0.4045874599541886 1.2694194010776574 181 147 119
0.3432377181007497 -0.1165892916316727 1.4259658011073553 155 111 72
0.3496017180135030 -0.1084087126973038 1.4613074768283902 126 83 49
0.3123006917764899 0.4185336939518772 1.3496480466698177 98 57 27
0.3543483427326879 0.4397975992164008 1.3960417766374984 181 139 114
0.2520878731753860 0.3954087874152110 1.2876899673864168 149 124 83
0.1600832910217971 -0.1181097676893604 1.3423857688955720 190 158 137
0.3392836703977384 -0.0773024265708421 1.4376633018269360 191 149 111
0.3398931643972732 -0.0708466584221680 1.4549084812895792 121 82 39
0.2339026476410611 0.3698853690166243 1.1717467139064111 190 174 149
0.1960996078283091 -0.0826866164733486 1.3658253239580618 134 102 55
0.3452638934458364 0.4318671351471099 1.3028997082265015 65 29 3
0.3301328751365221 -0.0470730667585780 1.4445259167558511 136 97 54
0.3502941396774141 0.4330180249813326 1.3059445048431162 131 87 48
0.3346407891077361 -0.0377923479672562 1.4776309376632293 247 200 146
0.3748142618659873 0.4603225218873443 1.3412692126854884 130 89 61
0.3214289479978425 -0.0073964225078530 1.4316408603901767 163 123 74
0.3240496509652328 0.0003961361952770 1.4320093523766819 161 127 92
0.0714725682579123 0.3628749443038000 1.2594078911454361 70 38 17
0.3287278910671065 0.0282234417895785 1.4491322806266917 113 75 30
0.3261500552842194 0.0360631877459816 1.4454331198233588 171 130 86
0.0786963519769275 0.3638878212906922 1.2537971167822037 53 35 15
0.3806168523455458 0.4742833241553746 1.3447558136696711 59 24 5
0.2170132006023591 0.3454865154579190 1.2717128118685603 121 80 60
0.3218268757620845 0.4338116516484167 1.2596628786682900 120 78 54
0.3058266302046878 0.4253516731877333 1.2400196488547721 198 167 146
0.3862999947628159 0.5054761749404224 1.3781296492406661 176 151 144
0.2896346048730788 0.3948776345180179 1.3700845215152437 118 80 44
0.1828359743024307 0.3354950954286815 1.2320433510056066 139 105 78
0.2341279328801609 0.4163573201319733 1.1735631859332909 96 52 27
0.0189955178313067 0.3537093980873637 1.1838254530727572 135 102 85
0.2798505288590403 0.4224794896202921 1.2039796448786220 131 116 97
0.3175415208343638 0.3994385751980993 1.3758866613326191 179 138 108
0.2791709167253069 0.4394810647617561 1.2140420023008494 118 90 68
0.0502606981572109 0.4811796409517592 1.1387714998952372 112 75 56
0.1164053428015244 0.4892913201058712 1.1757222872365791 166 114 56
0.1393929767937250 0.4963590754564998 1.1957326850291370 113 56 26
0.2097906719216182 0.3491837831567453 1.2310784851399694 169 127 103
0.0965667620849804 0.4881229382474451 1.1610384675441476 139 81 41
0.1144110918345749 0.4912508056357822 1.1732236094006672 170 106 45
0.1444897435577946 0.3456576633993310 1.1926113485124152 92 37 17
0.1035885990998703 0.4929292791303406 1.1651775657130838 171 124 78
0.2329171564823874 0.3735753627036634 1.2706934753587360 88 41 31
0.1960875413687027 0.3470471197275083 1.2131340462057925 97 32 12
0.1945485189924427 0.3456566889210139 1.1988694284400194 118 64 28
0.2538282741837777 0.3762645920635406 1.2557421639861579 96 45 18
0.0681652848950542 0.3855992226493742 1.1809332324112036 80 36 27
0.0035875811769352 0.3823207720193720 1.1359757688523759 140 112 73
0.2052553510333676 0.3567430228334304 1.1730525984758131 95 51 16
0.2850271056702307 0.3926962319915245 1.2537570756551657 157 117 82
0.3178317256469026 0.4111470529989453 1.2919428254015832 166 140 113
0.3375470345108471 0.4212771289189863 1.3116498007768027 173 128 87
0.2869578477139092 0.3907179237436777 1.2398287364750287 61 25 9
0.3451229169722143 0.4268032261200928 1.3151245920087671 97 53 26
0.3390468207010628 0.4254659254429857 1.2953981971405784 189 164 142
0.2994274914102409 0.4159522237621711 1.2331081165907962 123 74 44
0.3819146648578569 0.4796589806058152 1.3451185751286301 73 32 12
0.0292164934356724 0.4576242613148997 1.1386946574094992 135 75 41
0.3104867059159098 0.4501465415517016 1.2521414227557290 159 131 109
0.3072260417900027 0.4525672698358329 1.2506806340392804 54 22 9
0.0952102950497575 0.4776254077642877 1.1630855317541573 124 71 39
0.1100874651716485 0.4938531353703633 1.1695553361944853 197 145 106
0.3546992378024001 0.4319204741127801 1.3510210743163800 80 35 12
0.3021377032131169 0.4063755760796252 1.2664423430830027 95 53 31
0.3360627993006283 0.4226486196723814 1.3000536786112995 184 154 128
0.1572673687913168 0.4034598280698277 1.3733445984220283 48 23 18
0.0579852346380879 0.3526143204957487 1.2479629669621934 133 98 76
0.0715491719393447 0.3623049252876399 1.2652254418790878 134 100 72
0.2746104694133762 0.3918122891989558 1.3794803214936233 183 142 110
0.3611026804130655 -0.2224358003428430 1.4038348107181637 131 93 48
0.2894439372235085 0.4002757896620809 1.2244416209058731 157 120 78
0.3048595326919606 -0.1837022267256938 1.4009937381973629 131 93 56
0.2313841331484276 0.3666345234587190 1.2761350041918793 187 149 113
0.3253587772549402 0.4060467424326847 1.3743483329705801 183 133 108
0.3554003818363435 -0.1633726028007725 1.4385038616023622 184 132 93
0.2669443400740051 -0.1754360527378539 1.3784633797676129 189 154 132
0.1648725140115550 0.3449417992266241 1.1981220746178916 231 200 180
0.2392763141460776 0.4173594970993674 1.1766157381535685 158 124 96
0.3418196669023363 0.4264732495582916 1.3911964560621271 141 105 69
0.3534061631249009 -0.1207311010416888 1.4645074397094184 183 135 95
0.3465257830743679 -0.1258662071096046 1.4262701366947519 222 176 143
0.3472196519574154 -0.1308020269544712 1.4304558759019539 185 146 117
0.3493651191151740 -0.1281924866212883 1.4332460262553850 129 98 67
0.3057290877458341 -0.1331649904261265 1.3902626381118304 128 98 60
0.3482258853925757 -0.1065404016996747 1.4436964824086389 150 105 64
0.2546674304930803 0.3807599989238905 1.2678865504054373 197 157 131
0.3464055258479644 -0.1037878336426079 1.4414066812511617 165 121 82
0.2283133457826813 -0.1315190776876671 1.3681170522924910 206 169 142
0.3455767445417367 -0.1079595506318192 1.4357863893378451 211 158 124
0.3473530245383768 -0.0962175906231851 1.4520748549954585 208 177 159
0.1784679800583843 0.3482287513888764 1.1756116741981701 197 168 138
0.3033608201822562 -0.0851763258724453 1.3941521772003505 114 85 53
0.3329509544815518 -0.0458162998776702 1.4553747695470369 231 175 116
0.2637549270314252 0.3712925338666611 1.2306526194567995 200 175 145
0.3306523462967828 -0.0338088145988743 1.4558279931215787 174 137 95
0.3206955314805040 -0.0228974843570858 1.4372002266772101 219 169 118
0.2806144209824512 0.3895980611283202 1.2549368886150107 160 124 92
0.1811525833854916 0.3595896559729541 1.1641923566999604 51 21 11
0.1813414103501107 0.3595036233049388 1.1639689803170847 51 21 11
0.2608019731422666 0.3715860987855730 1.2081591824485025 60 22 3
0.3244706137131592 -0.0099529367510149 1.4376186306818861 151 107 68
0.3226148404150060 -0.0203383597637031 1.4393287144643740 158 100 63
0.1721544687287048 0.3639981715844332 1.1562808901776869 171 144 123
0.2496661243647576 0.3680316872446063 1.1938253325444887 89 44 21
0.3269178060164327 0.0176482435656771 1.4419659329328736 224 178 142
0.3264317157712310 0.0326803888202735 1.4455945036943156 180 143 117
0.3514500995069618 0.4449993935454211 1.2983826517046939 95 56 27
0.2769502795413558 0.3997923075865738 1.2015409118842659 80 35 16
0.2749377513000196 0.3983659083490854 1.1968121844691830 147 113 85
0.3507275162876074 -0.1453491469846104 1.4451638895627894 238 182 135
0.3553830027330283 -0.1360023618926386 1.4636681215508240 150 102 53
0.3403236761270471 -0.0676859965292333 1.4680066223621886 124 85 56
0.1471374734650577 0.1524662457183167 1.3073988247754751 136 98 53
0.3383641882543867 -0.0594203887632477 1.4656029724584270 221 175 126
0.1508285902868899 0.1974055986349520 1.2925764743572030 115 80 42
0.1293424501727971 0.4900352296733467 1.1861334350707771 128 67 22
0.1242163909041865 0.4982218172778026 1.1821084837507523 179 133 100
-0.2511283127614643 0.3637193929906370 1.2174487144552779 139 107 92
0.2894750722076780 0.1277698476782263 1.4072855581721959 112 81 52
0.2304795336590500 0.3635396817493903 1.2621817961446207 125 93 70
0.3425872212106785 0.4317947272075639 1.3888540908304883 65 22 16
0.3449070492216766 0.4346320143899371 1.3933107793322430 84 36 16
-0.0548668410873995 0.3227631214503205 1.2931213189604498 74 40 13
0.3323589861874734 0.4234263937999230 1.3654381264295625 49 23 10
0.0070882418332037 0.3686561849505764 1.1391339880367104 188 170 148
0.2290259988534516 0.3684567193151448 1.2690638691542599 76 39 23
0.2112255534711226 0.3501495101469470 1.2241068195621134 69 31 20
0.2400140318596906 0.3698501049055234 1.2556535390497143 99 43 26
-0.0247234315789118 0.3659201170032497 1.1222138894275608 163 137 114
0.0335962731897324 0.4083395750322760 1.1521112903083937 91 46 27
0.2718714477038772 0.3803674665214529 1.2082836663355960 157 125 86
0.3424411816392053 -0.1031385628063387 1.4407541662396850 176 137 104
0.3264190546107931 -0.0987230383268766 1.4100505840184134 204 176 154
0.1929679359766881 0.3411588371270424 1.2338762190389456 108 63 30
0.0316128952957920 0.3599719180784474 1.1883016712214141 118 74 47
0.3513783617384890 0.4332150497035902 1.3626699004159943 174 132 90
0.2797993821646726 -0.2101830515440177 1.3942822723683763 191 167 155
0.3656181945348810 0.4371674693650471 1.3457830912016830 134 95 66
0.3289476266378981 0.0360999903745020 1.4612776008105981 191 152 113
0.2701130331436742 0.1797829616052949 1.4518393344958809 111 70 38
0.2778078844312134 0.4178045596711522 1.2013593471053843 70 23 15
-0.0422071885213279 0.3393167823426531 1.2878353480712716 68 35 20
0.3225429784669274 0.4166070222987648 1.3597251956262404 58 25 16
0.2063494630288909 0.3436468707451484 1.2438535274493425 161 126 84
0.3065480755949582 0.4046020210249566 1.3646178552802659 165 127 91
0.3888541235175790 -0.3828507815746177 1.4663295591952614 123 89 52
0.3270859963100460 0.0338208264213417 1.4468751301798921 188 152 120
0.4074379368070267 -0.2526800815300758 1.4378446139227143 130 95 67
0.3211129038192929 0.0807807049372140 1.4532042536293892 192 151 121
0.4058479610196292 -0.2456782714203151 1.4600480967781457 166 125 79
0.3998101614378934 -0.2329474975816583 1.4620632444429087 113 66 36
0.3988549474850578 -0.2277497050694823 1.4455346130619520 116 75 43
0.2589480079311884 0.3794240565898324 1.2581986462909489 180 136 107
0.3674193017483651 -0.1759586283305848 1.4671674178590315 148 109 80
0.2445969421752352 0.3579321240509526 1.2079212987822285 180 144 118
0.2394823297213627 0.3571675204848334 1.2024824334484783 96 56 21
0.3643573218741958 -0.1702786175928444 1.4460700898947356 151 114 69
0.2624831037783100 0.3708250042595311 1.2354347294230876 126 96 60
0.3506833900383870 -0.1316196607928661 1.5196835596375025 165 129 81
0.3405628073655721 0.4263227508798976 1.3504813513450222 108 62 38
0.3426235743134736 0.4258188576512891 1.3484087651691818 170 126 101
0.1563575036948081 0.2612525295602045 1.2845252051364857 91 56 36
0.1817988423833635 0.2838984480652187 1.3198943386306068 129 85 58
0.1614380319075787 0.2770457532496890 1.2825215353795176 101 66 36
0.3464712338811762 -0.0983981902885675 1.4449459559539133 129 92 39
-0.0410037077105050 0.3270398413553625 1.2239775262901236 106 72 44
0.3423859021182905 -0.0747770824904101 1.4787916787394770 132 99 56
0.3387525685464625 -0.0560146676897749 1.4747209211873233 192 156 120
0.3743472094435741 0.4562626608770791 1.4076593806162008 198 170 148
0.2670852184259282 0.3747920586135085 1.2125167873152640 99 60 31
0.2143719246934394 0.3480985394971582 1.2872138720715922 167 136 105
0.2518413942488695 0.3701265280931371 1.1930889047614757 92 47 26
0.0404124390618069 0.3564426379243056 1.2000881314454084 76 44 23
0.3194928335396954 0.4113401506126033 1.2968346105525266 196 166 138
0.3197636386949608 0.0679314608819503 1.4338520168145148 159 109 56
0.3724364611961376 0.4493331377651398 1.3844123636627474 65 28 10
0.2853642874999872 0.3880319759802573 1.2357655432631149 165 133 108
0.3224282123867556 0.0730294809039331 1.4265271793706096 110 78 40
0.3706362716021461 0.4437672286086320 1.3712496328073340 171 141 113
0.3335482328724169 0.4172595077518968 1.3066483400197246 195 164 136
0.3326468010244767 0.4166113302626396 1.3031970354263389 114 80 42
0.3122993071872480 0.1092209191269152 1.4490218949061331 183 135 99
0.3125454793780453 0.3897025911607485 1.3971876802605030 208 178 144
0.3690258473879920 0.4411723747316401 1.3592468604560120 168 129 96
0.2143902037898328 0.3432476705231852 1.2598324939808372 140 101 72
0.3182451966517199 0.4126364717297242 1.2836612096910571 119 78 60
0.3750293682349964 0.4489491984031735 1.3661627188992005 149 116 75
0.2592685864626655 0.3816064803873758 1.1896211345556054 155 118 89
0.1981217132195392 0.3397331320703457 1.2367530745728237 171 140 111
0.2980115864531229 0.4058741883427535 1.2494903175237686 155 125 87
0.3505994466600793 -0.1398017656515150 1.4366771606682656 148 112 62
0.1825515814270247 0.2941411327678367 1.3034647860045012 121 92 52
0.3545126943414489 -0.1191789177860524 1.4859808722433734 202 156 107
0.1941778903900359 0.3461138994605891 1.2141704432485361 180 142 123
0.2289489742914925 0.3622615344532761 1.2563320202346562 91 43 21
0.2912959196551708 0.3812204696514587 1.4216096840793973 201 172 140
0.3500470883534807 -0.1095803917087821 1.4636231009597382 190 139 94
0.2243089851150272 0.3557081795457516 1.2360640461693457 197 151 125
0.3646136818809431 0.4359894046879457 1.3352449091647767 184 156 135
0.2785021920904560 0.3924604863361351 1.2087675423989892 106 72 34
0.3414495822806117 0.4281909044523304 1.3021228857588225 179 143 109
0.3095748660120163 0.3880704417677199 1.4031859914868532 126 91 59
0.3543441878070702 0.4352265682784461 1.3134138810705169 185 154 125
0.3819408412548349 0.4601038283926364 1.3674989269019264 169 146 114
0.3143358360320421 0.3919418245924231 1.4047260174541552 177 137 88
0.3069020206575107 0.4156223283587650 1.2522565875238130 163 147 114
0.2184152283732500 0.3467937505216905 1.2668411847348784 125 94 66
0.3219039139807215 0.4033061578664695 1.4192283268165786 202 166 130
0.3844038853294083 0.4710515463500214 1.3822470872965533 153 122 102
0.3151009773556153 0.3915805767786957 1.3927339057737591 184 161 130
0.3701450689396697 0.4475471882236092 1.3370200586962111 200 179 158
0.2474009391471360 0.3681195958451863 1.2459092661433986 176 145 116
0.2111626283087776 0.3462933621578048 1.2437657178801187 85 55 29
0.2180151652664797 0.3501751518792245 1.2523387301950479 180 139 119
0.2128805694096282 0.3482717307914762 1.2408634678588699 191 147 122
0.3449353631386902 0.4375734487125295 1.3976709533207992 68 31 5
0.2375963025702058 0.3578420962942058 1.1985467260510463 106 57 27
0.2178276331118765 0.3522479997038213 1.2300412096430742 84 42 20
0.1606723331104642 -0.1328394233798090 1.3426990437300594 116 88 48
0.2841527013635940 0.4051348720322136 1.2086075815129977 198 158 133
0.3570861254031107 0.4416909844337999 1.3938418633890945 166 131 93
0.3341270673007689 0.4157899417918426 1.3779817684072031 173 135 99
0.2382326509395316 0.3571145626791904 1.2258406968815991 168 132 100
0.3743468802599869 0.4627638119371385 1.3392048157188807 82 31 12
0.2504972922758879 0.3931669202760658 1.2873525150188538 85 41 28
0.2541801669680072 0.4115366967059391 1.1851598088093820 108 72 48
0.3779115668218422 0.4679475745818710 1.3430357320497264 133 88 47
0.2840308169138514 0.3854752131526475 1.2385073781493292 179 145 110
0.3095042813113614 0.4092986259043128 1.2902758508030798 99 60 31
0.2995210097874415 0.4055217912925226 1.2747148395338097 105 56 24
0.3776985537232454 0.4675001900920038 1.4165388032862254 195 173 152
0.3621913382741773 0.4364129086882079 1.3584452338636923 171 135 113
0.3011224904290477 0.4063158010789453 1.2664074366917761 105 54 27
0.3068576264846692 0.4104061401959042 1.2749782991846303 77 41 15
0.3240209601401910 0.0584045788735393 1.4892658979530289 201 151 114
0.3209329126495700 0.0839575301450723 1.4542711245086799 134 100 65
0.3147662503348476 0.1023210956203104 1.4687792107486033 197 151 118
0.3999634413853174 -0.2290040576726545 1.4554121240872908 194 159 121
0.3795840010856598 0.4645690452436553 1.3532236592045315 124 68 41
0.3715338395470108 -0.1838441421561370 1.4713137073751696 117 71 47
0.3744610477556387 -0.1833935575862652 1.4542112795806150 197 152 110
0.3612350380063044 -0.1644204183391257 1.4756813971244194 113 74 43
0.3630362857431634 -0.1670356000523625 1.4484740177410302 160 118 76
0.3594864580402947 -0.1599317461065728 1.4575857632793590 90 47 30
0.3549502467253691 -0.1543618744558797 1.4530781481457262 96 56 21
0.3531090477990907 -0.1364710499966323 1.4534004046986875 205 151 113
0.3530665810145964 -0.1323434659711102 1.4484516249916182 192 147 105
0.3537260195834422 -0.1199793649578688 1.4897294547064301 133 91 43
0.3526547492814573 -0.1173216696693850 1.4970841512527224 130 84 50
0.3527596167015370 -0.1142403147233754 1.4928301080340920 146 103 60
0.3521009346564368 -0.1195207026421108 1.4594440075090898 166 123 78
0.3520651610699647 -0.1176136924501583 1.4653577782593661 129 89 53
0.3501121986299088 -0.1110623386664021 1.4659576108644914 140 97 63
0.2990516824130138 -0.1297306496329650 1.3877666695986848 176 145 117
0.1802115575317562 0.3123578593179406 1.2795854896809686 177 145 120
0.3461325921628196 -0.0919789248396084 1.4594989105369252 130 94 58
0.0000032402230063 0.3424265185130320 1.1943688771490462 84 56 32
0.3365129416119624 -0.0499359402609970 1.4830631328478003 147 110 65
0.0661845712908458 0.3606956283963090 1.2571138970540052 74 42 31
0.3009945484182304 0.3852879505311080 1.4136357352904518 216 195 176
0.3348133823888826 -0.0369569886178800 1.4731643500084277 124 89 49
0.3056395209148659 0.3864305977613237 1.4066137105013208 127 85 47
0.3206394183872927 -0.0190773533604929 1.4354744135292672 143 105 60
0.2866362715415489 -0.0153731156007566 1.4059893651371702 103 72 43
0.0571654946719413 0.3880343842042765 1.1741875529672712 143 109 84
0.3286247205602286 0.4237659374495627 1.3609539558604993 79 42 33
0.3031720715748785 0.4068399588990271 1.2987356468659159 120 83 54
0.3669208424187198 0.4552990055542459 1.4124643938920405 91 46 23
0.3611095458384529 0.4356392980922572 1.3665902792131692 162 127 105
0.3736529252692772 0.4517796878917274 1.3940226521312098 209 177 156
0.3777605634323337 0.4576958894583044 1.4004407035375694 140 106 69
0.3686541011237405 0.4426791285904548 1.3690675870090767 207 176 155
0.3089438614294896 0.4180241627943811 1.2573188314379893 80 40 15
0.3856755379244607 0.4849043504199501 1.3590358173599288 44 21 15
0.4093272229585198 -0.3593721483532317 1.4523440586325698 219 190 158
0.3122896696660110 0.4155964113311184 1.2696721699074920 124 79 46
0.2116670222338804 0.3457975549673572 1.2901574799445306 118 90 53
0.0278466213587840 0.3555076680464964 1.1928362828679775 73 32 14
0.3650023486228835 -0.2236648656227800 1.4048007119627079 192 154 115
0.3263451066815901 0.4332282465578302 1.2699837180426234 176 139 110
0.2077143741527206 0.3482885827331414 1.2253145057008923 157 112 70
0.3533564414275653 -0.1283106905507445 1.4608929789127993 251 198 156
0.3353000855761404 -0.1322352704919635 1.4090692298725194 132 104 65
0.3487256578651819 -0.1050599617300502 1.4501704929124497 204 163 119
0.3144584482295802 -0.1243197461061650 1.3959451104840293 213 177 155
0.3190896577379060 -0.1226851135415028 1.4000123695282167 212 177 147
0.3481674907001954 -0.1006249340079067 1.4517075105103909 122 89 56
0.3374923074059571 0.4289812597131748 1.3796025534150662 157 124 109
0.2269768095629501 0.3537245096946670 1.1906642657445425 86 39 19
0.3453797990355408 -0.0951502878251091 1.4457023572936376 179 137 95
0.3313579453372329 -0.0212885077951790 1.4627987515690157 251 206 164
0.3319844223338465 0.4183894091367922 1.3264000517355536 209 180 140
0.3369461227550349 0.4181364050380745 1.3244981256819284 137 88 47
0.3273550366845019 0.4148521654670458 1.3068317053276175 127 93 58
0.3325686685329392 0.4175219282971443 1.3134854286886231 48 19 13
0.3209680123528314 -0.0223961341351899 1.4369358772666514 219 169 118
0.3299364277831818 0.0132635056494345 1.4466477245281253 180 141 98
0.3285371575436277 0.0248141171162086 1.4432494664582278 190 150 101
0.3798224760048635 0.4610457708456867 1.3929816110523943 61 21 21
0.3312669906586842 0.0047748870987695 1.4567074532028725 210 184 157
0.3134014921538966 0.0563748483684137 1.4181498468577529 210 171 142
0.3136898698265981 0.0563260957347043 1.4179197855332033 242 192 155
0.3192336098653661 0.0645862913681486 1.4271638409206349 251 204 174
0.3552209901416686 -0.1405046973525707 1.4787299304581440 126 83 48
0.3224501747332078 0.0735215464127560 1.4295076234066679 128 93 61
0.3481082887848305 -0.1149364888482286 1.4417979504630061 112 79 46
0.1914362325003064 0.1142040032919023 1.3303312950742072 125 90 52
0.3212604133076379 0.0711710522319689 1.4319329706247164 230 182 142
0.1945936320665995 0.3434134287396231 1.2316303281977219 118 73 34
0.2327102715841933 0.3555832517660785 1.2239789086607971 96 47 14
0.2390659430299297 0.3586832559216462 1.2283806417962055 118 62 35
0.3364688108575705 0.4240057777999391 1.3803168473532075 98 53 24
0.3429513778868668 0.4351272327041417 1.4009779537883980 174 144 118
0.2720346411457113 0.3773827745741322 1.2380971974434054 143 93 66
0.2252640678167098 0.3587848336921954 1.2442072525239027 55 23 12
0.2338718413048353 0.3682673732094566 1.1742982982021914 172 138 103
0.3538602399821643 0.4338619914191023 1.3138544708609676 152 116 82
0.3513540361665587 0.4492275027193854 1.2976508510305711 129 76 44
0.2070191529716430 0.3423931121076050 1.2891759435838799 101 48 17
0.3353575839231776 0.4240157494096969 1.2919585875139694 132 91 61
0.2986572409847856 0.3851602801137096 1.4079715219931519 220 194 169
0.2314890392426502 0.3668818771976828 1.2759567932688043 176 143 110
0.3295217292943457 0.0042729072097713 1.4389434932589398 126 99 70
0.3146319635324224 0.4117464064534346 1.2844138570938524 205 183 162
0.3276383265565416 0.0367619428426775 1.4621482518654350 185 140 111
0.3743874839726414 0.4497030002770711 1.3500391900953967 185 156 116
0.3381049374547372 0.4416371689806569 1.4193390028959150 105 62 30
0.3920694303593811 -0.2135202744809817 1.4591349411473247 203 159 120
0.3344803842271367 0.4497413129717138 1.4309037659192394 197 163 136
0.3793475843854113 -0.2160423197617190 1.4189806626777035 150 111 68
0.3402844227636365 0.4430466410261320 1.4183825021520151 175 145 109
0.3372871754820516 0.4265784036845890 1.3852480139831287 134 97 71
0.3723114311031399 -0.2174904919931092 1.4118417378924091 120 80 54
0.3090100552129934 0.1063233550626669 1.4891415522144262 208 169 128
0.3159786987063684 0.1015875807001185 1.4645437692558567 176 137 104
0.3727199977394594 -0.2144109550916578 1.4138645611879788 168 135 102
0.3073481108083334 0.1117909861831787 1.4878535369881825 133 93 58
0.3345543709543559 0.4224491774453079 1.3691763905515983 163 122 90
0.3469568199878273 0.4520532611358399 1.4299259261832760 145 97 74
0.3076824866103112 0.1206312060000398 1.4827026199117754 134 91 56
0.3102451339797266 0.1182381834494315 1.4703557788052204 161 113 67
0.2710368818531256 0.3753482440720513 1.2299082405736910 128 82 56
0.3029074440234142 0.1284794117588861 1.4929057470008404 214 167 121
0.2880433402001748 0.1399102977539418 1.5211003132774763 245 195 162
0.3830499278209740 -0.1976966960903948 1.4517729699469868 159 116 73
0.3496184148057352 0.4420256967109265 1.4101793545691814 202 169 150
0.2921369851999606 0.1569174239106670 1.4994196969464322 200 156 119
0.3475439716991094 0.4350978859099068 1.3867384570615480 68 32 16
