ply
format ascii 1.0
element vertex 687
property double x
property double y
property double z
property uchar red
property uchar green
property uchar blue
end_header
0.1430403241358153 -0.0724093371164939 1.0271865121872601 196 189 181
0.1051249785257092 -0.0464809253569207 1.1999209138657310 214 209 206
0.1245466721787312 -0.0717288340997773 1.0242163807059337 111 105 107
-0.1428715366272622 -0.0652449573098954 0.9788386221634136 113 116 125
0.0755050677821659 -0.0458485002274141 1.1945399389710138 60 65 59
-0.1755055409873382 -0.0407904214338893 1.1480172947505312 171 176 179
-0.1097419797365394 -0.0680391494091856 0.9866075063382532 198 198 196
0.1527117848122228 -0.0330141277808568 1.3127306021613223 183 182 180
-0.0003880443472597 0.0091438296780924 1.1280710598775781 86 72 59
-0.1566009046906105 -0.0662412977219626 0.9704796804872035 217 220 237
0.0156786792695968 0.0128795509734386 1.1274409540489989 123 118 122
-0.0864043810104790 -0.0676873484126456 0.9905702444560301 58 61 66
0.0979306079553048 -0.0707954972303849 1.0220449436367722 67 65 68
-0.1741995714931942 -0.0650183583251062 0.9761869705488486 117 118 123
0.1652400508009604 -0.0763855792084156 1.0372534458539480 118 115 122
0.1133443833998491 -0.0462264062413683 1.2043888187987286 181 181 169
-0.1781623918290816 -0.0404540561606305 1.1503016456796413 116 115 121
-0.1717885921251014 -0.0400742388749600 1.1510037303401666 60 68 79
0.1329084599889768 -0.0714240164799674 1.0295430730025303 92 86 86
0.0058417768488226 0.0117477616992424 1.1294114077227952 73 79 101
0.1476493405961825 -0.0721709567084935 1.0324646359953660 136 132 147
0.0129558810928936 0.0140578048827702 1.1286544704478672 123 129 127
0.1082456462317248 -0.0464870997438768 1.2049042325492390 184 182 170
0.1702360912338430 -0.0772629106028186 1.0307222046803381 158 159 163
-0.1662600170323765 -0.0652539856613724 0.9798070524441956 180 176 177
-0.0534750735973571 -0.0665063710681029 0.9980029352548284 146 150 151
0.1657175066369101 -0.0462843272185024 1.2155784068883841 91 82 99
-0.1574931059450583 -0.0658286835054229 0.9730862725241595 155 164 181
-0.0913106502132658 -0.0662518463449778 0.9922229520390529 151 159 170
-0.1866244778691134 -0.0399058065656050 1.1514553809493226 183 189 205
-0.0685374238886422 -0.0673414265782700 0.9975726818624985 57 54 63
-0.0798418135317766 -0.0670420949461249 0.9875490859361167 80 90 102
0.1090455264824251 -0.0457885550233823 1.2082899497361745 69 68 64
-0.2120711229559401 -0.0390976087393059 1.1483946903488669 41 45 54
0.1446700178567546 -0.0717286660017211 1.0345383382554896 107 120 137
0.1254904511352902 -0.0721583321322196 1.0228769536458304 179 173 147
-0.1457220360430430 -0.0649828141021097 0.9763386681577580 121 129 168
-0.0788968205138472 -0.0658148794164483 0.9964245761308316 116 118 131
-0.2119633788453938 -0.0381129350459248 1.1498043176050290 149 149 159
-0.1626400532096083 -0.0650872591914061 0.9745609601506267 210 217 225
0.0728421082350871 -0.0438096484223152 1.2048824042282860 86 88 87
0.1812208161188532 -0.0761797311993707 1.0354438972253883 178 177 172
0.0383542839043399 -0.0296884420279400 0.9886221107486022 105 72 67
0.0333091547741718 -0.0310820209656431 0.9900095600615157 101 88 54
-0.1738869766611341 -0.0387055735860677 1.1617418491655134 114 122 125
0.1756291172239280 -0.0451264252226570 1.2270715262539875 68 63 60
0.1493830959604017 -0.0725946413020807 1.0290720737643237 137 126 142
0.0602059196464404 -0.0428918791410326 1.2056620576572241 133 127 127
0.0774759463458266 -0.0437070488928790 1.2093070894444602 80 76 73
0.1225476906622396 -0.0713820727569121 1.0244702668473664 173 171 158
0.1550019266277720 -0.0738415945110857 1.0314002562082460 89 85 84
0.1667904425756194 -0.0452495791442730 1.2265242098690696 86 76 85
-0.1307635436358107 -0.0383072814037849 1.1704041686304070 159 163 172
-0.0834312925435815 -0.0650462017834752 1.0002011942218836 110 122 134
0.1454364290634552 -0.0444485481313877 1.2235062858769850 69 74 70
0.1584895636190340 -0.0444492892233836 1.2259511430947061 55 53 67
-0.1576300418309419 -0.0641057942010201 0.9882153891165387 49 68 64
-0.1602734933322393 -0.0655445930010887 0.9787486345473265 119 113 115
0.1538165390872458 -0.0732746417403030 1.0325479821689740 186 184 169
0.1581709613165559 -0.0736086316431740 1.0447606101903812 165 154 152
-0.0525358190234251 -0.0667493217249372 0.9966108378721479 126 136 138
-0.0842107088563974 -0.0666596912231560 0.9933106392169458 103 108 127
0.1800829310954580 -0.0723416572504430 1.0477860348055226 202 194 191
0.1100892821941275 -0.0692901153455490 1.0351791747900345 123 114 117
0.1191978666808984 -0.0695482018506366 1.0365529677628607 140 134 134
-0.1726700610109802 -0.0645485532394216 0.9788063197988862 113 115 110
0.0981215568942316 -0.0698309898424238 1.0342925770933800 110 100 98
-0.1375370074524317 -0.0387631161835368 1.1746206037357956 154 151 160
0.1220049245372660 -0.0694475950968785 1.0378060950157693 172 158 147
-0.1284395476207493 -0.0681839773123307 0.9887144371137241 105 86 92
-0.0711705343102690 -0.0653164047324286 0.9952273729473551 75 83 94
-0.0926424063785810 -0.0659472472937788 1.0030510765926710 32 53 58
-0.1223453612107125 -0.0691379668626174 0.9908315523886917 136 136 138
-0.1486855505697139 -0.0387673185410218 1.1736306080142906 138 145 153
-0.1332835938019288 -0.0649637061106271 0.9960352765698544 191 180 162
-0.0618750458124342 -0.0644665867556273 1.0071644460441793 100 107 115
-0.1770831664707194 -0.0630210254213417 0.9884803078692064 169 176 192
0.0433868673896108 -0.0273161845616799 0.9851726504325941 226 224 227
0.1377232649107997 -0.0715003400850712 1.0331536780490547 123 118 125
-0.1413112364733866 -0.0378575928637870 1.1757854272452912 140 155 174
0.0926768323008635 -0.0686790076494192 1.0353919169436081 107 109 104
0.0573870935690811 -0.0424084142967589 1.2141980214505521 133 127 131
-0.1544415291863593 -0.0631431196078985 0.9933303130794583 84 92 95
-0.1076376649378536 -0.0666409237818684 0.9931705774053824 200 200 208
0.0268950951048291 -0.0318749995640571 0.9874632696727335 167 141 104
-0.1053974133404099 -0.0672441890652997 0.9944208317419779 102 105 112
0.1608233186533105 -0.0746678430690761 1.0508502320086299 215 205 196
0.1603489108699031 -0.0438092317597601 1.2340559398716955 109 94 97
-0.0818368612466752 -0.0641758893358621 1.0060689864611545 105 113 136
-0.0616976795022394 -0.0658065061233726 1.0012710995833785 109 111 126
-0.1310129731826996 -0.0377111431751837 1.1800065302144793 75 75 85
0.1582195470513639 -0.0749431345828477 1.0516675759966010 190 177 160
-0.1746065647688430 -0.0622793181464171 0.9909890115206570 145 143 157
-0.0543714844979914 -0.0657889016883609 1.0030453809691229 29 40 44
-0.1525225409335455 -0.0646435970351813 0.9974100432315470 68 67 65
0.1710748134387282 -0.0424615863541823 1.2393032268157689 221 217 216
-0.1190474037071886 -0.0364538373791325 1.1847969023456073 114 124 126
-0.0802747529334650 -0.0649531222621883 1.0004127452600007 124 142 156
-0.1130401987726737 -0.0647715131627839 1.0060851275561566 108 103 100
-0.1103143149349350 -0.0357862287140984 1.1870399246800194 180 185 189
-0.1458718602755901 -0.0369181437242457 1.1827607300284158 222 229 248
-0.1377955772831562 -0.0625498793861584 1.0012316463486537 194 200 224
0.0316137524966968 -0.0353214528532156 1.0072625999455138 103 96 77
-0.0130323575566049 -0.0036270380505811 1.1720284871300362 166 146 135
0.1332094757141860 -0.0681374007958998 1.0489317378939540 158 151 159
-0.1421844151493363 -0.0368466440592081 1.1849819049587651 162 165 174
-0.1322780304567693 -0.0364134395073236 1.1867231629860524 61 56 62
-0.1595217418453456 -0.0382306424636134 1.1848198890530843 221 227 239
-0.1345625268967396 -0.0355310696015851 1.1860610745305349 169 169 177
-0.1723734696238466 -0.0632159615101558 0.9890781564642493 176 183 199
0.1525444917285973 -0.0432426512043425 1.2426665450276118 67 61 65
0.1276662180342121 -0.0680223417127867 1.0502770443964586 198 195 176
0.0983257824516640 -0.0690657077308461 1.0370382463667407 126 119 113
-0.1652228417275327 -0.0617310056257481 1.0004016313064958 150 150 160
0.1801309476883847 -0.0698427908540703 1.0601383519278231 207 194 188
-0.2190189946225436 -0.0352804950694684 1.1737918577838315 115 97 113
0.1667442290245672 -0.0418746926826361 1.2469399544572830 194 195 199
0.1440162405932156 -0.0773087541225835 0.9842369921394827 200 195 202
-0.2011301195731725 -0.0348459911254997 1.1777022574238050 78 79 81
-0.1641056314443256 -0.0628548906976582 0.9935246279589132 150 153 158
0.0526227376684511 -0.0406000762641783 1.2266845086189047 68 63 69
0.1272822135060180 -0.0774436443727203 0.9825403327479483 210 212 211
-0.1778588141354913 -0.0625093867853512 0.9921689748146052 72 77 81
0.0222252067794958 0.0039260607136631 1.1761637321939333 191 189 190
0.1631664278326919 -0.0714937413537216 1.0614937754431131 175 174 179
0.1385738842377894 -0.0706944617104875 1.0474497531628744 201 185 160
-0.1799371922160271 -0.0609058443699606 1.0006771723440975 135 135 135
-0.1500000147160697 -0.0623678127483911 1.0062867933656252 152 157 161
0.1360443909448219 -0.0416868496244077 1.2442026814285239 122 125 134
-0.1783226307803410 -0.0611632655895683 1.0016023205766655 138 139 141
0.0131015379716767 -0.0277893184012038 1.0052392285070970 179 161 157
-0.1351116515142637 -0.0347508554964908 1.1912614938832427 187 191 200
0.1004848566110438 -0.0677313913131999 1.0506872352121492 102 102 94
0.0907419562429401 -0.0418101981419587 1.2382124404721386 93 87 87
-0.2193404329903750 -0.0340411349832134 1.1780132926942619 169 181 195
0.1696693537921622 -0.0835982317332382 0.9979548366435935 198 197 192
0.1763435059069128 -0.0412124394159146 1.2528826604385721 207 202 196
-0.1790184415112923 -0.0610836466319550 1.0030273686188800 86 79 87
0.1636690592337297 -0.0709065632617381 1.0641798584837225 248 244 245
-0.1069901391571520 -0.0639980657566317 1.0079348184203760 106 96 95
0.1025812378560798 -0.0752325813350681 0.9828612286525970 199 190 193
0.1078191313015812 -0.0759158561831370 0.9845279882824638 213 211 212
0.1006823294553192 -0.0753179146312747 0.9833287632596364 225 224 229
-0.1807779404140856 -0.0619782344448833 0.9956612745484291 41 53 53
0.1279906173428166 -0.0676828902996340 1.0573174207274785 157 155 156
-0.1649035726997295 -0.0618068555637101 1.0071850109713671 162 167 161
0.1538189521061280 -0.0744474958220356 1.0572583778525366 217 213 188
0.1455431098593141 -0.0766961040814456 0.9915086147466198 223 222 228
0.1744779169864044 -0.0831516260547918 1.0016446966469494 209 212 227
0.1347276762432777 -0.0414318387859804 1.2489095264365053 81 81 83
-0.0107806724830270 -0.0331030442893548 1.0104071742042600 156 159 142
0.0003501465199741 -0.0346355829707194 1.0135289273220558 95 98 117
-0.1772552279594013 -0.0621043708104672 0.9978059620933678 172 175 190
-0.1394430298096843 -0.0342073681026237 1.1956958094133114 90 87 98
-0.2213835362196362 -0.0342321780523129 1.1823686695571218 64 64 72
0.1013663754282841 -0.0403296155858422 1.2437243328643539 130 133 142
0.0096793290786455 -0.0742819147677737 0.9747802363262161 160 168 191
-0.1615566543193570 -0.0616939321139606 1.0018663444984806 187 192 198
-0.0881594759843038 -0.0337370577321602 1.2060180138371661 149 165 178
0.1243095286246807 -0.0667963849496304 1.0616293147569660 109 107 108
-0.0522867590985977 -0.0338483799410644 1.2123958401721664 156 155 161
0.1559937079734367 -0.0712606777512886 1.0704584052459161 149 148 153
0.1271564242715042 -0.0682050857668371 1.0522456085702740 121 115 119
0.0193718488083046 -0.0258581799709442 1.0135337763018712 93 83 81
-0.1661701547471133 -0.0701685146144665 0.9472626265595243 95 96 100
-0.1167771347215500 -0.0627207958727874 1.0220898353941286 76 78 77
-0.0650700016923505 -0.0717053301866869 0.9633487920783751 131 126 133
-0.2059302431716609 -0.0342000678252677 1.1884400400323631 92 96 105
-0.1005717695411748 -0.0333855271327768 1.2056518296903449 116 121 124
-0.0928073896610004 -0.0335908582340581 1.2070599977325756 181 186 180
-0.2021030424464736 -0.0337739185248025 1.1896554680347167 66 72 86
0.0551228371532031 -0.0300173333543179 1.0162754853633478 97 90 97
0.1073173562003660 -0.0661859394124599 1.0532518676280613 108 106 107
0.0798184563811389 -0.0741301491740035 0.9894379638363248 158 163 169
-0.1968369117672664 -0.0335823125976348 1.1909761771136373 40 47 53
0.1732926343666624 -0.0689313044763509 1.0660059370712471 201 202 206
0.0186235763192150 -0.0258255658738430 1.0168547398800658 94 87 95
-0.1402364529200736 -0.0342922315689391 1.2014337413907825 95 93 96
-0.0825580338928581 -0.0713297490585315 0.9640526530778661 185 184 192
0.1693306578955595 -0.0678941436741644 1.0753397942569916 95 88 96
0.1117885141658594 -0.0449233788713848 1.2571929060066167 191 176 157
-0.0897463779613799 -0.0339890536881245 1.2116266917736580 123 127 130
-0.1801196310536211 -0.0587636710849053 1.0142770154509897 103 103 111
0.0885402721464658 -0.0747480384447157 0.9939899871766573 179 168 166
-0.1892789583900014 -0.0330434386526793 1.1948712689257039 157 167 176
0.0823692630361479 -0.0740833841223684 0.9933165221867202 127 128 130
-0.2131511025048920 -0.0337402697182757 1.1919024692033597 177 179 174
0.0230868881319789 -0.0259148311934143 1.0108109879470946 84 82 70
0.1320820459313181 -0.0663284661533452 1.0699621763673628 177 178 162
0.1748589431498730 -0.0674019382848958 1.0774441905997127 182 167 160
0.1595801042424717 -0.0783526174988353 1.0080249264602548 213 204 189
0.1419755688872457 -0.0662227941589838 1.0716302321025839 180 171 162
0.0013863707832310 -0.0327136854662388 1.0227604495136751 123 122 130
-0.1040938018847659 -0.0335308269238879 1.2116247795334021 74 77 82
0.1005427133083890 -0.0760877420742790 0.9985355915943627 169 159 157
-0.0036109233649659 -0.0319346288906995 1.0216467019829369 116 106 105
0.1123075643615723 -0.0743259458628875 0.9989539768127037 190 191 193
0.1369732213042553 -0.0665008692326596 1.0716504045639046 98 92 92
0.1000532672392757 -0.0665251982891360 1.0564088452892180 103 102 100
0.1503174100988532 -0.0755235809362233 1.0065701372527125 207 214 220
-0.1598128647496465 -0.0345518401705250 1.2042261388945394 92 94 119
-0.1076105762581533 -0.0720841411625699 0.9659640320667390 110 114 126
-0.0225456438461349 -0.0290850085897698 1.0177658349086427 215 197 185
0.0713889633566149 -0.0381366025681428 1.2484266088922005 94 90 81
0.1613551123954799 -0.0392849121283143 1.2653669793934315 95 84 80
-0.1690570872994163 -0.0600247600418925 1.0107001721521218 81 83 82
-0.1845731742519334 -0.0582458210404005 1.0181946498527041 189 186 203
0.1391858845758994 -0.0667244716575462 1.0660377118928990 166 156 154
0.1334677111581878 -0.0742660266906253 1.0058856497397968 182 180 185
0.1473266042448317 -0.0751653280996197 1.0085142759134518 208 214 226
-0.0489488775907506 -0.0327812414492992 1.2237635090951464 104 107 112
-0.1379193217953012 -0.0686861614696174 0.9611727166819188 196 202 216
0.0300051662512778 0.0142468620771498 1.1875071178263930 127 107 106
0.0244727732372010 -0.0264958054560831 1.0254077039462370 76 69 61
0.1453090223712325 -0.0747610051103142 1.0093839472125761 137 137 149
0.0208801759854328 -0.0273518018758182 1.0265921150056843 59 54 60
0.0074308781465552 -0.0330127104251171 1.0210362800420589 65 66 52
0.1358329429621808 -0.0659471905110584 1.0689713981154569 163 156 146
0.1641502188964024 -0.0683202876807412 1.0759563029660348 177 182 178
0.1651851789188878 -0.0665950461486862 1.0839686100693733 127 117 118
-0.1356214698565461 -0.0629647684975422 1.0342083780615094 136 126 101
-0.0565438425181712 -0.0321949287549028 1.2254428947430722 103 109 95
0.1488744375198472 -0.0745144047089061 1.0124055250047590 182 176 176
-0.1855282791025543 -0.0347251939477517 1.2062395658309453 38 45 55
-0.1312874078302653 -0.0622893832057558 1.0347491574899432 132 130 133
0.0712307913055315 -0.0452967189041632 1.0452614100920279 120 118 106
-0.1464955124726381 -0.0672777843027848 0.9633406751375679 117 118 138
-0.1761437687360012 -0.0592410764678045 1.0183827884826955 78 82 93
0.0322568845894391 -0.0231676341563832 1.0300747782317288 45 46 48
-0.2110710968408874 -0.0309719625361648 1.2019083865544806 158 166 179
-0.1408302127426624 -0.0589681176960723 1.0337939794835378 76 79 86
0.1348625050422654 -0.0380209812333305 1.2692968875210651 176 171 168
0.1515532309249181 -0.0379996904653680 1.2724016902678970 140 157 165
0.1677457992426293 -0.0377501378365702 1.2749284955954834 193 202 199
0.1469493580084157 -0.0739889240300528 1.0139120265204862 204 207 212
-0.1609924603252375 -0.0584760222870190 1.0221423537990140 163 175 191
0.1623009175848410 -0.0679602647347154 1.0802006273790785 95 93 96
0.1187184708083351 -0.0742822537495195 1.0104073995946441 84 77 84
0.0721817462932430 -0.0383538224098609 1.2602307511383506 178 181 188
-0.1450030373597729 -0.0595509124965415 1.0262611400503296 88 86 87
-0.1233682061630996 -0.0613714681499540 1.0315620534694616 81 82 87
-0.1216741114918563 -0.0321797165618959 1.2210006716198656 141 139 142
0.1427477523006450 -0.0734022008601777 1.0141715889116401 165 166 184
0.0325378303181057 0.0169923649927441 1.1945428424246098 142 136 148
0.1015285971731156 -0.0732556407846945 1.0080050456782137 98 82 95
-0.2196511486629229 -0.0308674294844121 1.2028878755959664 67 63 64
0.1467624436178825 -0.0688596493950632 1.0915687497650244 126 107 111
0.1597737290945502 -0.0775802185912237 1.0210273287845775 224 220 211
-0.0626293881146589 -0.0693328334141682 0.9816040163670116 73 77 89
0.1687167163580558 -0.0792073421190997 1.0242154798743872 147 146 152
-0.0793760577690509 -0.0306362155399217 1.2285107323717928 104 103 111
-0.0548035949849397 -0.0306315824295874 1.2327310108675436 115 109 109
0.1228034516380345 -0.0746369469709668 1.0148180405002034 135 132 113
0.1727181644527630 -0.0669033371498657 1.0859890603757323 98 69 87
-0.2156917049891817 -0.0304110911046272 1.2055262117394299 168 169 187
-0.0426139404384242 -0.0210145891552504 1.0243702964065826 66 55 61
0.1510257090464516 -0.0675408194367522 1.0942289756715693 146 117 121
-0.1706151203888877 -0.0670061281353406 0.9654642842260810 112 120 123
-0.1638646392546073 -0.0571887560634168 1.0365300619516806 79 79 77
-0.1790806887826029 -0.0555939422209971 1.0336228666778133 186 186 196
-0.1730934811061984 -0.0579135636687922 1.0259376099385518 99 96 115
-0.0439702908160567 -0.0310845570202290 1.2392316700999142 114 116 115
0.0456730445795643 -0.0398923036991645 1.2639379264303372 126 126 124
0.0765505450880715 -0.0401061031366328 1.2697995485886764 72 66 66
-0.1021283412332826 -0.0242022983086459 1.0203453786288388 98 87 103
0.1639330934193164 -0.0789675947166352 1.0285764502577577 111 116 119
0.1318516263927953 -0.0629851567642044 1.0911655624815852 95 95 97
-0.1856906512781504 -0.0574745954142734 1.0258339559818799 173 182 197
-0.1202465364283972 -0.0316280289494976 1.2289727228166809 52 53 71
-0.1065185755085595 -0.0302909801593216 1.2298261813290132 141 143 155
-0.1818638967495946 -0.0567228432915743 1.0276705565107758 177 180 189
-0.0847412827480977 -0.0303444579339356 1.2347489045857616 170 170 172
-0.0637226474964577 -0.0297528082234028 1.2380742425556968 105 103 116
0.1708121013172471 -0.0640565379274187 1.0991712543615810 86 80 84
-0.0694826805112373 -0.0300719571636216 1.2387866551383853 161 165 166
-0.0434221937025904 -0.0180665552464179 1.0288463078205929 49 51 48
0.1602046773865375 -0.0658983121948042 1.0912700840890630 152 144 142
0.0935496109488364 -0.0714832236180707 1.0162884398438208 154 139 144
-0.1856628010515937 -0.0565240969402380 1.0298509983494089 116 116 124
-0.1458346466883707 -0.0293724155383560 1.2286237152127453 176 190 203
0.1407259883618156 -0.0353698110246637 1.2856434825555991 195 193 194
0.0753421025200424 -0.0711453178984980 1.0162623581822166 103 97 99
-0.0041835492693015 -0.0196137688579193 1.0326191620798824 119 118 136
-0.0109022528559929 -0.0345420157737795 1.2587318375894287 116 109 116
0.1653115903324578 -0.0768360007711353 1.0349114438281126 166 165 170
-0.1433537274455659 -0.0299301821096092 1.2324002270443433 149 152 161
0.1384414175183673 -0.0623873600323269 1.1011346145506420 178 181 164
0.0243160517582806 -0.0122448357491078 1.0335756602920871 55 60 64
0.1487296929486901 -0.0659932605326402 1.1067912188574838 173 161 163
0.0435401339278278 -0.0363729489462250 1.2742141037236276 89 82 100
-0.0795904001756957 -0.0286751846125380 1.2454101295816611 125 125 135
0.1777267758848190 -0.0639370450305025 1.1040922762900922 78 69 90
0.0998880365655619 -0.0414407555409604 1.0798000289341632 105 106 110
0.1481945839629143 -0.0658347051128766 1.1087203290388856 168 157 151
0.1471454086554899 -0.0346643258095529 1.2939543815137187 191 194 203
-0.1402012863033991 -0.0590080641471789 1.0588004713287149 133 126 118
-0.1301033619339351 -0.0663269837777928 0.9884971142427336 175 171 162
0.1061581097999468 -0.0389802593045878 1.2932991950622119 140 128 128
0.1356775806101226 -0.0347411313963771 1.2938031579338241 101 106 110
0.1382751914653481 -0.0629646627261622 1.0991974986665949 106 83 91
0.1580562048789864 -0.0341299994881251 1.2971968259587816 196 197 202
-0.0202356251230858 -0.0337132379988392 1.2673275044023458 115 110 114
0.1599844344745537 -0.0340661229290599 1.2989918801446592 104 100 101
-0.1708718921154091 -0.0531383103987997 1.0529785523048889 141 145 157
-0.1886250443044688 -0.0549158712280966 1.0431048071252993 48 60 60
0.0535375550952024 -0.0341043000361429 1.2819034892848236 88 77 81
0.0807452591190689 -0.0230140923477435 1.0674066369680553 155 155 155
-0.1148187142949257 -0.0665519119847743 0.9938970140261586 145 145 147
0.1417181531508189 -0.0656499471177192 1.1148637599100661 185 176 167
-0.1762663136555482 -0.0638433742782059 0.9836948622582677 127 109 121
-0.0588365425376499 0.0018413290149597 1.0250333978107271 163 157 133
-0.1846452283259235 -0.0530034620822313 1.0524938621242701 158 162 165
0.1363109569572454 -0.0340105816509366 1.2988187193098772 118 110 131
-0.1587636982718600 -0.0538528409992484 1.0574347079422148 149 152 161
0.0356129456659353 -0.0034114871448573 1.0375736156362814 52 50 53
0.0922823615382817 -0.0261591913747881 1.0758578340908671 119 115 116
-0.1261532915576730 -0.0680437083699259 0.9976053007110627 178 172 174
-0.1469294206874142 -0.0538119004294067 1.0622250685653136 139 150 154
-0.0570921345135122 -0.0273056263627242 1.2612396125513710 179 183 186
0.1434435200014708 -0.0325691864654382 1.3027715053250872 124 133 142
-0.0632730561972231 0.0030166995246277 1.0270214580392119 220 215 209
-0.1924043984510785 -0.0522301028155991 1.0554491594209063 93 102 107
0.0962717025290830 -0.0695232327000636 1.0335393686328473 75 77 72
-0.0161846942644507 -0.0088192358924271 1.0392175176267215 59 59 59
-0.1603760188426384 -0.0538156497020982 1.0569247491355440 86 80 82
-0.0904418574210284 -0.0264727328298475 1.2580879780069922 81 85 84
-0.1846984689658692 -0.0306376385214078 1.2471508333427861 144 138 148
-0.0612122026463739 0.0038562245932530 1.0292751733764334 195 186 171
-0.2338835428821717 -0.0269901237143884 1.2347242186045142 152 146 150
0.1443716968268008 -0.0650811381385092 1.1152388232507053 149 139 140
-0.1932740913615929 -0.0518138402304644 1.0571798007390940 161 162 166
-0.1372960617113791 -0.0634735638018733 0.9963463677087583 188 188 188
-0.1252272685458221 -0.0270389583527704 1.2538764801338116 63 60 67
-0.1783059952433598 -0.0521477407599393 1.0606131507381378 159 159 159
0.0282363159603724 0.0036875116934283 1.0458470810416405 98 93 100
-0.1926752964603037 -0.0515595496273453 1.0593391692967964 106 96 107
0.1268703479673115 -0.0704890545262394 1.0443933924561539 60 57 52
0.0338233583818994 -0.0306353551471314 1.2873781090072214 86 85 90
0.1633217424343459 -0.0598853839351867 1.1245611064009899 181 178 169
-0.0039028247161579 -0.0034478059874113 1.0429936125473562 52 54 53
-0.1401515160224137 -0.0566349421920094 1.0735870744494058 138 129 124
-0.1264325161035187 -0.0673410536903030 1.0045007535170565 144 146 141
0.1568244981880837 -0.0318235759874289 1.3120923007613554 95 96 101
-0.0531363474337255 0.0025447915989258 1.0367157097214126 102 88 79
-0.1906491554238783 -0.0516878100899599 1.0571788349498148 180 183 188
-0.1788045303962232 -0.0623021765184709 0.9941199133315562 154 152 173
0.1670977516355963 -0.0718560127096207 1.0563454185600498 233 226 220
0.1623234240387646 -0.0590183499090297 1.1277287389353354 199 191 170
-0.0580447064040672 0.0035448156771572 1.0323660143915159 128 110 108
0.1156378140458891 -0.0683545527394162 1.0484585777905842 79 83 66
-0.1374490067644308 -0.0547290053332855 1.0790445826169772 144 143 151
-0.1806414244611114 -0.0611608523826070 0.9983615926746245 63 65 80
-0.1772975146569670 -0.0515683235829978 1.0638178144935551 117 118 123
0.0211091357917482 0.0042720613785682 1.0536460979129030 186 177 170
-0.1388357743844562 -0.0544421688888948 1.0799691891572245 100 110 109
-0.0715153314269066 -0.0073297994030963 1.0419661097596620 165 156 115
0.1460252096676801 -0.0623382629840178 1.1257897976992073 108 105 114
-0.1721074557672808 -0.0632387345435225 1.0047844282840559 58 64 62
0.0288533236360649 0.0049735606340537 1.0484481538744348 114 99 104
-0.0186773523282322 0.0020925871996552 1.0511575474133248 108 93 100
-0.1926805141331288 -0.0533177786018643 1.0650951622585614 39 50 52
-0.1621508630605151 -0.0516420908067067 1.0689000766538894 171 181 190
0.1272928522530225 -0.0683753825877353 1.0549970022850248 205 193 179
-0.0672433167781743 -0.0065365529892057 1.0449487287824044 147 131 115
-0.0610526288772553 -0.0050576398758977 1.0524769288581548 156 135 114
0.1502661938213164 -0.0703653184014128 1.0608582252959669 155 143 121
0.1804403810345943 -0.0594630820199410 1.1319634744322866 177 178 173
0.0258131561046252 0.0065688184158241 1.0569682530539883 176 174 175
-0.0660852746386357 -0.0060689068440083 1.0473663393433221 161 142 125
0.0431741005375419 -0.0039056458869409 1.0695792416783396 145 146 138
0.0057790057508129 -0.0346727060595612 1.0119124299728339 235 208 199
0.1266718436378443 -0.0578613673695105 1.1258322434498838 140 137 128
0.0219875551624244 0.0053836306519813 1.0579776888071144 244 242 245
0.0501084552166726 -0.0290404119457679 1.0156385261637708 86 84 89
-0.0414584124106427 0.0026138302520081 1.0507775811354003 167 142 137
-0.0624429544607650 -0.0055274549870725 1.0502878786974958 156 146 119
0.0018012955308125 -0.0346187240305958 1.0129006547865240 196 186 185
-0.1292867710563263 -0.0654421376193705 1.0183494691986525 119 110 113
0.1625473079204314 -0.0578112041381075 1.1352140764012313 126 117 112
-0.1170911976791099 -0.0241070953854986 1.0648458128597926 161 149 135
0.0511215412030159 -0.0288401416514545 1.0182673126519250 129 125 122
-0.0750883353774254 -0.0043198879145920 1.0551343586236985 143 132 110
-0.1989003521841280 -0.0495249356350877 1.0762777143395137 49 50 81
-0.1814238843660865 -0.0497752063209628 1.0791137257217736 130 139 144
0.1577989417757087 -0.0577956728829364 1.1382861438790060 99 98 103
-0.1935282577472365 -0.0494941704728404 1.0748680572713181 165 163 184
0.0196473228803630 0.0046589699448069 1.0650456483011377 219 221 218
-0.1498784593038320 -0.0525535456445385 1.0853751648416066 49 43 47
-0.1740241820235837 -0.0503497645800437 1.0798463566276730 182 181 186
-0.0798195220784828 -0.0057542559801746 1.0555458212991298 107 92 87
-0.1691003751220043 -0.0492147124359905 1.0844377260932385 138 142 154
0.0461692889003618 -0.0006000526190135 1.0753676309999018 141 138 147
0.0684725924012926 -0.0143632956330605 1.0879944066430909 159 161 121
0.1661971616658630 -0.0686531656066898 1.0743692051687128 99 99 101
-0.0503084954115188 0.0017200625783649 1.0588347041006914 167 154 137
-0.1957312523794323 -0.0482592427990768 1.0816941542747445 162 162 174
-0.0622252391296322 -0.0034071596547601 1.0584477258178924 144 133 113
-0.0607485492077344 -0.0030980739702551 1.0588134305399257 194 187 168
-0.0182746017030562 0.0058265040642224 1.0578234556632069 99 94 114
0.1530040450177726 -0.0703255925284818 1.0802000936100389 109 92 102
-0.1602541311315273 -0.0496203759188296 1.0869244207753430 144 143 149
-0.0323308954229383 0.0101971601273098 1.0539648920774622 113 99 86
0.1654098633966081 -0.0571158170975570 1.1475467168634856 195 184 182
0.0411387875507526 0.0004513400189947 1.0758215267884712 101 99 113
-0.0112781751633815 0.0042828378628976 1.0646772518910226 124 117 91
-0.1997825256176079 -0.0477606764988884 1.0828191111360543 188 195 203
0.1333761445724099 -0.0587584883232575 1.1464692992632703 99 81 81
0.1789246496718239 -0.0566859115186909 1.1519339697102435 69 63 75
-0.0925675885760604 -0.0033912824113117 1.0601342796193218 132 132 124
-0.1541185778046577 -0.0491774718249940 1.0930893538767801 156 156 156
-0.1900919408515031 -0.0482063369122410 1.0875563911010275 155 158 163
0.1500908303876149 -0.0565436239654730 1.1509096073017011 157 147 145
-0.1552881307918821 -0.0488175459497722 1.0950229551145994 73 76 83
-0.1442445950028297 -0.0523257255051627 1.1004389007283226 93 96 111
-0.1762880102080235 -0.0473593583867678 1.0910070853534497 161 162 167
-0.1638803707499029 -0.0485526036096983 1.0944970997707384 140 144 147
-0.1499035436836988 -0.0523297398966680 1.1042232943121795 134 125 118
-0.1854124138049322 -0.0464723994755459 1.1014877191088646 90 89 97
0.1235781571765616 -0.0527781175578573 1.1583063263879960 227 224 219
0.1299363358381325 -0.0625032196261613 1.0923594477253686 146 144 145
-0.0385028570455172 -0.0187145096762057 1.0304833019476274 92 70 72
-0.1890312071375784 -0.0551010716806137 1.0380407118449941 163 161 174
-0.1372330375849035 -0.0603643294413275 1.0507384867347256 110 101 102
0.1213640395398847 -0.0529613640592110 1.1611096753549550 219 215 203
-0.1525208772219119 -0.0505553491031911 1.1158066776747475 151 146 140
-0.1179591930124351 -0.0189411917418165 1.0927853648791170 105 100 106
-0.1255989114438030 -0.0564848097432225 1.0518719765943958 46 47 51
0.1383818702619024 -0.0550440979433013 1.1697780780860134 98 98 90
-0.1613214005064607 -0.0461209937249430 1.1127997174742368 95 102 110
-0.0906721682035146 -0.0030297703674987 1.0842227002461104 217 204 188
0.1737381976456295 -0.0535159256847095 1.1755104347679655 219 219 221
0.1308350224516745 -0.0610732671916282 1.0989560941554612 87 83 84
0.1689166881703013 -0.0524894786183990 1.1774128213246249 175 180 183
-0.1431228707196086 -0.0472021015959683 1.1225060074211077 102 105 122
0.1766225499594841 -0.0516532066389208 1.1793322357103033 205 204 209
-0.2055776862466467 -0.0452899406118705 1.1117654036051572 59 48 64
0.1428676324341481 -0.0659742237217696 1.1103111477898682 142 142 144
0.1681366680369300 -0.0625368231774007 1.1182012438107429 198 188 176
-0.1814963782920672 -0.0440552362013650 1.1209676436457818 81 84 73
0.1443110215573541 -0.0643978941999333 1.1175118906240606 175 168 160
0.1698861815229757 -0.0522584347265253 1.1869053335678927 69 63 65
-0.2021283158844783 -0.0437507399209925 1.1184933830197556 76 80 79
-0.1705351381355981 -0.0439019611681036 1.1259255761996141 112 109 102
-0.1887443859147116 -0.0423178259501635 1.1267783481169749 184 186 201
-0.0705251963743600 -0.0065201110084098 1.0449088413866703 178 169 160
0.1535098359429254 -0.0492949250491936 1.1931480831124774 196 187 188
-0.1948217734943035 -0.0509772964973037 1.0673288297561112 156 160 171
-0.1990255992551453 -0.0416076168179366 1.1275531875184559 172 176 187
-0.1551715539148479 -0.0467218308848424 1.1398798960865544 125 127 124
0.0976426440502218 -0.0482320877302878 1.1847341924301247 174 166 145
0.0914476403560904 -0.0478794551396623 1.1838415833552871 183 178 149
0.1101979132784607 -0.0478101541000005 1.1883603377792733 199 190 175
0.1554387632533811 -0.0485230571779169 1.1979119431170699 220 220 218
0.0053211422795393 0.0073546425936472 1.1187576073002607 99 99 99
0.1325286641936599 -0.0589603098271048 1.1368200070054806 209 204 182
0.0923028818934566 -0.0476288414663140 1.1882469614186593 111 115 114
-0.1626308681408196 -0.0435551644662141 1.1424520234599609 127 125 126
-0.1541287603149659 -0.0447702536003166 1.1472474485291182 105 112 120
-0.0891823784405450 0.0025332276259194 1.1130757616353903 122 117 111
0.1081695646812378 -0.0486152482367974 1.1959107024758524 213 213 205
0.0050275586829400 0.0085651657729611 1.1233051295613161 83 85 82
0.1061708506384880 -0.0469908068281675 1.1950323206175166 101 96 90
0.1754865453379727 -0.0481954592296111 1.2075648654295297 75 63 77
0.1498468544039101 -0.0473285407724363 1.2039333454479464 143 138 135
-0.0333112634826168 0.0116363456144906 1.1163205016325550 107 88 90
0.0186470170584849 0.0104459793639628 1.1266289542494079 73 78 71
-0.1965274310811626 -0.0398532989610436 1.1425505748685141 183 177 179
0.0395331658530784 0.0013514330011938 1.0770967023006017 135 135 145
0.1282906073300014 -0.0560089433781732 1.1439500899668351 125 111 111
0.0441673415732936 0.0017520723222383 1.0788221816032040 134 128 132
0.1403034644068220 -0.0473741688164869 1.2067001539620432 201 195 195
0.0043105984843053 0.0056484022517113 1.0691338283266305 187 188 182
0.0807347822545996 -0.0455998344775041 1.1956365622493423 86 73 82
0.0136193371563991 0.0024504546426484 1.0757795882011161 223 214 215
-0.0358972799117714 0.0115854642895747 1.1211690753519943 117 109 88
-0.1511779014142640 -0.0520325589559433 1.0998550445622524 66 68 57
-0.1958341853031757 -0.0396766629138110 1.1480588336343991 85 88 93
0.1336124300611274 -0.0589353816361522 1.1551229556384559 151 150 130
-0.2032639046539588 -0.0383066363040985 1.1481384075028218 164 165 169
0.1407664325626131 -0.0569099591264225 1.1565542485683753 122 112 110
-0.2040415881698814 -0.0385418092981270 1.1512757122167678 148 148 158
-0.1787790001292564 -0.0394398994315147 1.1572444241993360 41 57 56
0.0978723721435650 -0.0446904261245265 1.2096664833670954 139 131 120
-0.1508896587396747 -0.0512637079359897 1.1095125042771039 135 125 115
0.0652814152419186 -0.0439550378869793 1.2038774762923306 146 145 124
0.1406068241760594 -0.0561007244401286 1.1614322609621350 111 103 100
0.1760880612211511 -0.0551821923883410 1.1664968693439259 70 59 55
-0.1947442058361774 -0.0389795099893633 1.1566357823025251 164 164 164
-0.1666426741888836 -0.0466946727656277 1.1047697504756786 191 193 208
0.1606851430839645 -0.0457553844455850 1.2234228141469179 82 80 85
-0.1510939697862081 -0.0402223265582405 1.1667247894109494 123 121 134
0.0921255739251967 -0.0130581762404242 1.1181445195450528 218 216 177
-0.1902596622447044 -0.0460566178284668 1.1032704268013902 68 71 64
0.1004330313938641 -0.0449234552312067 1.2149076312539475 114 113 109
-0.1354664803733514 -0.0390813835927309 1.1701821977929139 83 77 79
0.1757964825511156 -0.0536208732081737 1.1725931426744085 56 59 74
-0.1915676093854060 -0.0457835077847923 1.1059111462066864 139 145 161
-0.0977791221647155 -0.0020385495301276 1.0820675055246378 146 140 124
0.0511150524768669 -0.0419590745559970 1.2090232646293950 144 139 136
0.1149833598538376 -0.0457074446999732 1.2250966151655833 120 114 102
-0.1842504142728493 -0.0374698876702503 1.1675271837389696 154 153 167
0.0946360386590774 -0.0434320194844413 1.2205385148982562 98 87 91
-0.2093402523159791 -0.0381535997878498 1.1645833492294302 153 146 138
-0.1684705253991206 -0.0386980199021678 1.1722616232173080 73 75 74
-0.1621097800152655 -0.0409453072396773 1.1756527801240422 134 132 135
-0.1256119233546799 -0.0375108628234308 1.1783363655211585 89 85 86
-0.1852099974208337 -0.0375042006928391 1.1699030180134389 68 80 80
-0.2108432480248650 -0.0366999880406593 1.1657218081572369 67 65 70
-0.0962462378625004 -0.0375446591414924 1.1892899967745851 57 53 54
-0.0364918439740876 -0.0072740044917685 1.1683082861066965 139 133 111
0.1075723523048202 -0.0427207818096554 1.2290858201687584 144 133 131
0.0661550223033944 -0.0415707236353686 1.2221085985923206 51 50 46
-0.1933198664511815 -0.0361810029232924 1.1743182245013541 93 88 82
-0.1110466393751291 -0.0355776801451415 1.1892980361356222 115 114 120
-0.0377345189981770 -0.0073210730918736 1.1721647517552682 153 140 108
0.1549801530754005 -0.0426740632663261 1.2414548315102520 200 199 207
-0.1727781008982648 -0.0359727963786288 1.1793160488495724 233 233 243
-0.1573319826720051 -0.0378681769823105 1.1840308567190725 148 151 184
-0.1576796976194769 -0.0471802365575517 1.1315803312781108 61 64 55
0.1474662332333120 -0.0426366362395832 1.2409777111646438 161 157 154
-0.1786412943666856 -0.0367489166529095 1.1797853385025854 102 110 113
-0.1308394154102693 -0.0366481986784995 1.1886208885234906 168 173 177
-0.1994797750875084 -0.0363982747127825 1.1784656340136275 164 167 184
-0.1886413492374131 -0.0421303308645423 1.1261708082259034 146 154 165
-0.2094411476988501 -0.0354887682799018 1.1774816222075437 159 154 160
0.1067981239229600 -0.0488058987536650 1.1817544448724866 151 143 130
0.1010982152945118 -0.0486413260437507 1.1817692687804295 101 102 96
-0.2007972431610398 -0.0360983531509261 1.1804911042752502 90 93 84
0.1382712254370434 -0.0411778420328879 1.2438987541004112 64 51 60
-0.1576177249299204 -0.0464613506285020 1.1409440056627511 156 148 127
-0.0362171538709437 0.0182683450608359 1.0985630191156459 84 72 60
-0.1417057174912312 -0.0351146279803808 1.1931629356924474 187 190 207
-0.2100572079131084 -0.0353352221617229 1.1824040487927974 90 84 86
-0.1521493334665729 -0.0453588004165948 1.1437464568310596 117 128 122
-0.1894167948455505 -0.0417930704743958 1.1348144544481757 98 99 104
0.0034352488667554 0.0064670199509790 1.1207355258296181 191 168 154
0.0109058723829508 0.0100111264442801 1.1208676825488331 79 72 80
-0.1548783788351499 -0.0443013050241661 1.1526563515891290 116 120 119
-0.0395816269852428 0.0132589045463986 1.1176213271769002 98 91 45
0.1527220974368011 -0.0471760556416123 1.2120865140393360 49 53 64
0.1556667031793404 -0.0461417163111094 1.2121562837675455 226 225 230
-0.1934003617699596 -0.0397817632997329 1.1477112408704317 167 169 184
-0.0125118862198893 0.0126357329715607 1.1258349592824026 81 77 68
0.1519709632329559 -0.0459734042188253 1.2143371690961728 162 175 184
-0.1725148699783287 -0.0386446808485566 1.1593802835399181 171 174 189
-0.1596823126208575 -0.0423538922022218 1.1654887669824221 113 107 117
0.1028571396499387 -0.0437871018451743 1.2151661306978012 126 121 118
0.1360561733362494 -0.0456301520406448 1.2228468722872299 120 106 103
-0.1813273962272617 -0.0378435694788464 1.1622096031439955 175 180 183
0.0191595732367842 0.0185658824225244 1.1405608455708707 142 141 149
-0.1218937057266439 -0.0380825374734970 1.1748495508981027 172 177 181
0.0166559466729199 0.0187924110403231 1.1412985715773427 152 147 153
-0.1896909242453144 -0.0375025389060131 1.1645341265861555 138 140 137
0.1703233687270611 -0.0445253544607314 1.2338261076332306 112 114 129
0.1168546676455120 -0.0492305143644183 1.2305623010720272 198 181 155
0.1095062237107176 -0.0435460045651441 1.2275235663187882 78 79 83
0.1156335013820245 -0.0479216526007109 1.2369760913994412 198 190 169
0.0247200778697864 0.0047409873937297 1.1763321007460374 69 74 67
-0.2111275378869979 -0.0345286911943199 1.1783491950649601 83 73 97
0.0556883087473409 -0.0400472491381238 1.2323277463571012 40 51 45
0.0198458427962084 0.0060391352079429 1.1784186959700116 121 114 108
-0.1213703623953245 -0.0345937404421122 1.1974067580272203 160 158 169
-0.1808737576354003 -0.0348059651509742 1.1890888729188458 44 58 67
0.0232500990271469 0.0075371193261422 1.1792023475598035 93 86 76
-0.1125982571264777 -0.0345671246292490 1.2019683786617850 85 81 78
-0.1772920161126881 -0.0335158325132571 1.1956898151963569 155 157 169
-0.0538836554414422 -0.0335838319724752 1.2180688534918065 73 67 69
0.1680634135304067 -0.0395849125862538 1.2647414161108204 106 110 113
-0.1928367669496229 -0.0326598618794158 1.1962255203170205 185 185 193
-0.1020222366940817 -0.0325445101858793 1.2129628410069246 191 196 190
-0.1245300685124640 -0.0324445731746444 1.2172487340917673 33 34 38
0.1650763284544295 -0.0379666828461713 1.2763050183278717 72 63 64
-0.1202437946620701 -0.0322007406964531 1.2234463700502398 159 166 182
-0.1106747658974588 -0.0314007597879647 1.2252996442183202 193 193 201
-0.1049348339222813 -0.0307584227234299 1.2262251803089435 113 116 121
-0.1449246850772362 -0.0300191732192395 1.2244891867625018 188 191 198
0.1688354929658634 -0.0356660256808451 1.2904847946174449 199 203 214
-0.0732392508732820 -0.0289671590956439 1.2441220784079468 170 179 184
-0.1297472162772043 -0.0286429166537866 1.2401051531289637 75 78 83
-0.1133541886347670 -0.0275296724182167 1.2468868212826472 188 189 191
-0.2228432894353307 -0.0274428021227031 1.2353947909435687 99 98 104
0.0254510564471000 0.0065231644699204 1.0582256731039492 170 154 164
-0.1414877773138142 -0.0540439100327058 1.0859709225737366 108 115 125
0.1374001997602753 -0.0614720613753141 1.1398946494063984 228 225 220
-0.1318664890039722 -0.0383545432921326 1.1779122014946060 48 53 47
-0.1198690471227444 -0.0738648908995818 0.9472154119241052 114 110 107
0.0916599871705208 -0.0769099556805663 0.9818805775580230 218 219 221
-0.1543515451183786 -0.0491523308216528 1.0878765745333769 123 125 137
0.1774556595856845 -0.0821358049407423 1.0032403050393095 174 177 186
-0.0538102534526848 0.0000765977780423 1.0610671156975788 109 96 103
-0.1745637615944027 -0.0487352189367962 1.0878983212517996 135 139 151
-0.0509618964588013 0.0022988468781598 1.0613625002636062 223 209 196
0.1516256218915216 -0.0562704404486429 1.1476141231458059 193 181 185
-0.1679089715610256 -0.0484252110794503 1.0894457894188767 140 139 170
0.1468421995577741 -0.0766886355747787 0.9962215851720668 214 218 227
0.1433587909488787 -0.0580880844365748 1.1486730504821114 224 220 219
0.1099046324062379 -0.0423642171650813 1.2478062092331772 65 65 65
-0.0884883036840881 -0.0041166972992369 1.0625693009501127 105 99 77
0.1352875833918101 -0.0757810681456532 0.9972760086436701 223 223 233
-0.0608685400240215 -0.0716638177711038 0.9662300048153428 84 84 84
0.1302243494381257 -0.0752403230681966 0.9975294498126871 161 162 167
-0.1628213957999448 -0.0480168642484829 1.0994122663821662 97 94 75
-0.1586699359176745 -0.0480137421773905 1.1000420198662260 136 152 168
0.1643362037736427 -0.0812768598139132 1.0109480781714610 142 138 127
0.0042255255460538 -0.0716709913788156 0.9834410933289980 78 79 97
0.1194326167834948 -0.0743657911297032 1.0027356402604160 82 86 97
-0.2249263373704835 -0.0315597328107584 1.1982674766738786 54 56 55
-0.1958762442411760 -0.0454237844364279 1.1068036403878507 97 100 93
-0.1280274208861344 -0.0319890436765754 1.2164665710403830 143 148 144
-0.1711671009209169 -0.0675979589214585 0.9573979702244788 154 159 178
-0.1550853108013568 -0.0492012525293652 1.1181733569980190 56 65 44
-0.0148726577291259 -0.0691942920474602 0.9842601143170747 166 182 208
-0.1114716353249390 -0.0706134190914453 0.9745222541379126 146 146 156
0.1405850548976605 -0.0732614950387765 1.0161039740915923 104 106 119
-0.1551375612246244 -0.0302440670659239 1.2248460666632210 144 156 172
0.1734472839485844 -0.0779297829234434 1.0259813595915368 194 190 191
0.1545680536134884 -0.0738998483723201 1.0206321877330873 238 230 227
-0.1869217807850937 -0.0431164300183250 1.1285739846175904 49 49 51
0.0977656543269500 -0.0485140353381434 1.1813429984666792 182 184 163
-0.1785876186811720 -0.0312338413318665 1.2433691923919898 106 111 117
-0.1405354434113986 -0.0444173677454034 1.1399303837211598 68 72 71
-0.1405673629941115 -0.0444173298679308 1.1399229020676400 68 72 71
-0.0985127069982222 -0.0688095105427641 0.9830712110688966 73 74 68
0.1738947185918666 -0.0768664926110299 1.0308946115985951 132 122 130
0.1100457761125481 -0.0713228451200095 1.0185824854441576 114 113 111
-0.0052783688295778 0.0096018120646575 1.1126390946199327 57 58 60
-0.1810083132018695 -0.0421294800849069 1.1342652290038140 163 169 183
-0.0438276917197084 0.0204272121179976 1.0970696250367511 77 81 110
0.0953327981090076 -0.0470856939540473 1.1889630039975241 213 204 187
-0.0818881579895926 -0.0662222509437292 0.9927228745720853 68 67 73
-0.2077629975414999 -0.0398728604206112 1.1366572291885972 165 171 169
-0.1768245951928085 -0.0410732587791834 1.1429494810925518 168 167 172
-0.1700021156401281 -0.0643592630213138 0.9799535585133266 195 194 210
0.1634123960652345 -0.0461224835933956 1.2106146334298944 201 195 199
-0.0635824966246583 -0.0650247363254260 1.0035406025310114 71 72 92
-0.0767854258141394 -0.0653174572303680 1.0027211821303050 78 63 70
-0.1591798726558351 -0.0437822579983093 1.1595961718734424 130 128 131
0.0074258398159303 0.0144522634314150 1.1331682623145638 112 113 118
-0.1884592221282986 -0.0385658397576270 1.1547009351526902 194 188 198
-0.1501995352375793 -0.0645467177952589 0.9961765273933563 67 73 69
-0.1422761098176897 -0.0414012688402841 1.1680693011168621 157 155 166
0.1632884743737883 -0.0732286200624631 1.0544044902131864 172 173 177
-0.1574052936586285 -0.0642463208453572 0.9984680847855937 148 155 163
-0.1354720810015602 -0.0641024368228171 1.0017535584674551 73 59 59
0.0220167901547469 0.0179293590229826 1.1411019182758257 168 170 165
-0.0970279235746299 -0.0631505593532595 1.0087577221672217 61 61 63
-0.1395474758302741 -0.0388080782744628 1.1740894243961095 54 54 64
0.0663639628716692 -0.0756827438691747 0.9822115449517350 150 164 191
0.1436152982741375 -0.0434320808364380 1.2315367385260154 197 202 205
0.1521296888646496 -0.0766613937178199 0.9993710618654303 219 223 234
-0.1785654018467312 -0.0368335172464499 1.1715348894638984 181 180 185
0.0184429943326201 -0.0741401673428938 0.9782910742504369 113 111 98
0.1321806384219093 -0.0446672219092079 1.2344879349092686 130 128 131
0.1112590831832880 -0.0662681331922903 1.0561489100476265 117 117 125
0.1643802360968885 -0.0421660776202786 1.2417653772161286 156 155 169
-0.1717509319615643 -0.0601015760185643 1.0113534982108539 149 147 161
0.1581748689041965 -0.0775149006670330 1.0118898611252043 162 143 129
-0.0276856408386816 -0.0302952747593874 1.0103401491931423 56 51 47
-0.0141743154859399 -0.0310065621908539 1.0169782536009024 64 53 57
0.1521682886615545 -0.0742563737142852 1.0153275292191488 200 203 212
0.1085499250478539 -0.0654604087897249 1.0647416894332928 115 113 118
0.1181011172645450 -0.0652937782487662 1.0673157846194243 76 74 75
-0.1183522745755096 -0.0349641396449304 1.2028511162066009 50 52 49
-0.1148082999154149 -0.0709490315839356 0.9749806121265799 142 136 146
-0.0962137196118961 -0.0685686459181678 0.9762351857847424 191 186 190
-0.0012351925080669 -0.0320941719478630 1.0224441204508996 46 45 51
-0.1677387522620512 -0.0668428870313138 0.9647939405892548 204 203 219
-0.1146227873838737 -0.0331645561241940 1.2040287042298607 161 164 181
0.1668601609092380 -0.0791712185088716 1.0254626975690901 108 108 116
0.1040753692041426 -0.0397679604990417 1.2497714972521357 107 101 105
-0.1198182157644780 -0.0335920653204574 1.2060284267123913 189 189 199
0.1597884483399102 -0.0681953139328934 1.0825402739864356 100 83 91
0.1214029214876967 -0.0722002067020844 1.0179184075620926 66 66 74
-0.1696674042534747 -0.0291729500464372 1.2448506910246477 150 152 167
0.1655737564751835 -0.0653793519835219 1.0877402388772948 96 89 97
-0.2146532193150160 -0.0329272244504887 1.1937672954123879 74 78 77
-0.1008425389713571 -0.0254686113991119 1.0177273189825293 88 84 73
-0.1746114867391672 -0.0354218268118084 1.2198990329128083 128 123 101
-0.1894232656005316 -0.0329485445065839 1.2253788661124605 109 111 108
-0.0417513558617598 -0.0030965369842370 1.0388534317711309 126 99 90
-0.1791727248570990 -0.0520964398165305 1.0609759742319620 153 148 154
0.0895989566744922 -0.0213313155722731 1.0799882674670813 117 117 127
-0.0571025932236826 -0.0727765231387760 0.9634101835617187 175 179 188
-0.1919701490799748 -0.0516041312652967 1.0664979071302350 46 45 43
-0.0744956044987450 -0.0067154487388515 1.0451858655652906 133 115 95
0.1281051587741859 -0.0589428176866139 1.1241544183517718 56 61 55
0.1465778454219683 -0.0325144820587471 1.3028747172229582 210 204 204
