ply
format ascii 1.0
element vertex 690
property double x
property double y
property double z
property uchar red
property uchar green
property uchar blue
end_header
-0.4204729382933555 0.2467360555672957 2.0486072453719899 181 172 175
-0.3808639865984655 0.2468364231033819 2.0467976807361969 174 175 169
0.3800753803724226 0.2385882655623374 1.9613417560025976 127 125 128
0.0688472133189930 0.2587398264873798 2.0385011617059230 171 167 168
0.0593406422920728 0.2595699838569765 2.0426165183038614 186 182 183
0.0251500484246945 0.2601019723050261 2.0411794417104208 136 136 136
0.0309723636679629 0.2717832125749961 2.0554472943155115 177 168 173
-0.2004927749172568 0.2801662132672092 2.0844931138426053 173 164 169
-0.3769552306361531 0.2885735097831445 2.1012284179660403 178 172 172
0.1222233836147440 0.2847901600616482 2.0696447214119895 159 159 161
0.0947859724703570 0.2858267634705665 2.0733980130217264 170 159 163
-0.1545849330866948 0.2933123037631527 2.0955633369094437 178 179 184
0.2887208214165034 0.2889665455589638 2.0671677487590059 137 132 138
-0.1055761474175014 0.2977798291169110 2.1008723111270156 58 56 61
-0.2355681862985880 0.3096805209415074 2.1284445061616308 101 100 106
-0.5418893385059994 0.3374854463116572 2.1645402084608092 72 63 56
0.4003529917710980 0.3171579378740266 2.0934871363572900 94 101 94
-0.3617161800175910 0.3436842717514618 2.1601757065448433 162 160 163
0.1997574721801242 0.3322586204345714 2.1117534156010387 131 130 138
-0.1297826010995222 -0.2105791284496759 1.3224547754155540 123 118 122
0.3677795584686350 0.3350331346510499 2.0916659653791325 162 160 161
-0.1947096565914468 -0.2051397969215873 1.3281243863879433 173 143 132
-0.5719237607455561 0.3586950409689948 2.1396203982071360 32 34 29
-0.3318984780017183 -0.2016198880718668 1.3423194777668670 122 120 125
-0.0891696646518466 0.3546114504259676 2.1267856833926579 126 125 131
0.2323759056624733 -0.1849391892417006 1.2616242979661487 177 172 168
-0.2843503889857515 0.3695676273610758 2.1370462155037253 167 168 170
-0.3642517740011110 0.3818437465177554 2.1348318828722874 160 161 163
0.0419057742508032 -0.1731224247640128 1.2806062247965386 166 151 156
0.1348338608199242 -0.1734863727450772 1.2787029046509455 210 199 197
0.2858571673841593 -0.1715092638134134 1.2694649168745482 202 196 198
0.2744786020085445 -0.1710392174101082 1.2701460532785318 187 178 179
0.2649047163267456 0.3744850668609258 2.0718745174929571 166 166 166
0.3442661746392614 0.3771472440537961 2.0616495467234865 134 141 160
0.1875842375911971 -0.1663525215578655 1.2781226358784152 85 84 92
-0.4178026773143296 0.3991077797806943 2.1292426535090216 129 124 128
0.1520435974343449 0.3838525156641979 2.0757164757985773 169 170 172
0.0706992677846026 -0.1630670172912724 1.2928750519643903 204 195 186
0.0096095566344514 0.3918144665415385 2.0851465398952120 156 160 161
0.4343746430188287 0.3796084549990290 2.0180620536755733 122 127 121
0.2342756365971404 -0.1614580090500230 1.2840104953948928 177 174 157
0.0911793187580900 -0.1598199032133507 1.2990998117309289 165 161 152
0.2232087460880574 0.3905637855044777 2.0612075132765630 127 127 129
0.0021887526325644 -0.1576820727886654 1.3014952590476943 173 164 169
-0.1864809717296373 0.4027698065957825 2.1003161522416374 194 192 197
-0.0096555141345407 -0.1562560772666305 1.3088848361932619 175 163 163
0.0769233877682659 -0.1554286415866835 1.2996476824241043 74 72 73
0.0722852304871534 0.3997392813820712 2.0745891645687529 174 176 175
-0.0991318021728847 -0.1527478404673183 1.3169799738497439 174 167 157
0.2043005347780639 -0.1538369774258915 1.2977792663318668 172 166 154
0.2287140786739786 -0.1534487792569726 1.2968112983227778 167 163 162
-0.0703560664567998 -0.1516954111953606 1.3156505876450699 184 173 167
-0.2013040068453866 -0.1504725828210050 1.3247668760745654 161 151 152
0.2214951072336596 -0.1513718331662511 1.2998258869400567 179 173 173
-0.2449252140390211 -0.1493607207791914 1.3290006223365762 187 174 168
0.3499566503986958 -0.1450677076446801 1.2578628399592247 91 97 93
0.0373613451652563 0.4081976126775224 2.0717148658808608 143 133 131
0.1613185579060449 0.4052258390606490 2.0581823888550526 174 165 166
0.3748231948743082 -0.1439034216171296 1.2590536712566216 111 108 99
-0.0652576819504699 -0.1448882896361454 1.3237092710437401 106 104 109
-0.0023894843720877 -0.1442483213306668 1.3223923905329544 110 96 111
-0.0618185707298196 -0.1422185981368495 1.3252786609786076 153 136 144
0.2522910117098487 -0.1413608562347107 1.3112105063247286 152 140 142
-0.4228073690391011 0.4327798084152710 2.1057601193579947 172 169 164
-0.4558222159683047 -0.1378287702151335 1.3542519975305007 196 187 182
-0.2361519486432213 0.4259162152374899 2.0865789338427989 156 154 155
0.3737890108014365 -0.1354915039598981 1.2714687789885797 58 64 64
0.3139969026414637 0.4146531885706413 2.0365282627195378 129 133 144
0.2257892779166601 0.4179286083222590 2.0430718687047715 135 128 144
-0.7406714028385109 0.4428191055599601 2.0947962424232704 128 130 119
-0.3262890832538743 0.4419159445667036 2.0828571449838735 150 154 153
-0.1020462380189043 0.4366444482290555 2.0620169143311919 171 170 175
-0.4429845775168864 0.4560159533478495 2.0872600673983319 117 114 109
-0.3715304603922070 0.4552472471313693 2.0778219242653235 164 168 167
-0.3323219952585554 -0.2064461837254933 1.3406038105217981 126 125 131
0.1616654379536001 -0.1406194347663482 1.5095523757383877 154 149 146
-0.3717928927227169 0.4624161991503565 2.0754548674818234 103 103 103
-0.1716964594296671 -0.2018218591013332 1.3268060057518303 150 130 129
-0.5195137695299110 0.4722135897391249 2.0820522546409252 139 139 141
-0.1118879075831325 -0.1343602195162220 1.5328098603560507 207 193 190
-0.1814282877853058 -0.1320967068294273 1.5390974693422870 191 181 179
0.0781315804344497 0.4571854515779005 2.0306265937978365 140 145 138
-0.0575535944834655 -0.1318032141850706 1.5365342045777561 168 153 146
-0.3613342774755079 0.4719669916012708 2.0673914931447004 112 111 109
0.3897458211959214 -0.1158613204409942 1.2945792042869786 127 126 134
0.2341264198667403 -0.1310697726986723 1.5174562425470854 201 176 172
0.3252740230616186 -0.1289885401499550 1.5092498258500651 147 150 143
0.0988687674189010 0.4618578994586375 2.0252387540392398 155 153 166
-0.7112237185903643 0.4902710626191136 2.0915802948641140 124 122 127
0.3625035853364915 -0.1241489709466365 1.4822756299115192 81 75 79
0.0844223529707676 0.4645598725176596 2.0223858856352974 176 180 181
0.2182177924858432 -0.1218008252102070 1.5300841497711406 149 133 133
-0.6851567104370900 0.4928129268377707 2.0859888615868707 149 149 147
0.2173272471154865 0.4654257314624873 2.0074844065378215 179 175 172
0.2097909462806653 -0.1139500291420677 1.5404351481492760 159 146 153
0.0952440528337898 0.4696335598814472 2.0188621352386167 183 183 183
0.1127267527620043 0.4707341247452879 2.0142275458403254 140 144 147
-0.2735287042261838 -0.1051167639404169 1.5808361684592778 192 188 187
-0.1888151978997580 0.4849043199289092 2.0378085622763633 86 86 86
-0.4146467000122878 0.4943143924126024 2.0564208299493489 157 141 152
0.3489155188446311 0.4736796521068878 1.9876814416797868 150 142 153
0.3907527996256006 0.4708644375887573 1.9742196032159616 93 90 83
0.3671808914765989 0.4841464198481487 1.9783029036841984 196 194 197
0.1230605363221980 0.5012788678412403 1.9889382779435287 184 186 185
-0.4245630503498107 -0.0803988986329882 1.6204140130215303 118 116 119
0.3417629226662082 -0.0923015505013474 1.7311645410024299 107 127 160
-0.4686271125384737 -0.0757919788373174 1.6293662995856100 116 103 110
-0.0588055750563167 0.5134839495397334 2.0016270269053247 126 126 128
-0.2411599427894234 -0.1955404777286459 1.3334322672944825 183 165 151
-0.4394664248104435 -0.0738719490658859 1.6311839053657691 204 190 190
-0.2426580116224679 -0.1904904335156781 1.3340178424926001 123 103 114
-0.2356204486836024 0.5219367945533279 2.0117642617550180 176 178 177
-0.3993623815170545 -0.1874790009361918 1.3489602421067928 139 133 137
0.2826351046089730 -0.1780437558791590 1.2607251350471267 202 187 190
-0.4642470731510251 -0.0655974142138636 1.6414496687867464 121 116 110
-0.4108479407210253 0.5317810859020790 2.0263957688518590 183 183 181
0.3683829108358588 -0.0696456572201446 1.6154470537896155 158 155 140
0.1627427170385543 -0.0685542226981124 1.7872276200015278 137 168 199
0.2428766690795277 -0.0686906652829645 1.7789318482760332 120 148 187
-0.4261440966300152 -0.1721665270566602 1.3337903629841219 58 64 64
0.0106578913733954 -0.1669123999396503 1.2918772814733968 102 89 106
-0.4220937664999907 0.5417186225493793 2.0203084470249104 125 117 115
-0.4682762586030473 -0.0528128551431042 1.6590415964012029 201 192 193
0.1358877881294865 -0.1671844983939493 1.2827510685521497 218 201 194
0.1978464184704078 -0.1675915320585975 1.2787839134316326 171 162 147
0.2590765885268410 -0.0604753295488035 1.7869373518677898 137 157 181
0.2371435532343018 -0.1677576628231626 1.2771262371644485 158 139 143
0.0010428707586593 -0.1660683826772978 1.2916393025276398 81 73 84
0.0077110123465435 -0.1633937186326256 1.2953989887430726 198 183 188
0.0608232895760527 -0.1606596756682863 1.2936500045003010 158 143 150
-0.6976027245184093 0.5621627475844170 2.0116615351631673 82 84 83
0.1320366193649896 -0.0474088917789362 1.8114838369654778 123 145 169
0.2390045740984305 -0.1604831934176340 1.2873314751157034 133 122 126
0.0111724975267971 -0.1589523570870441 1.2996748100831781 154 150 151
-0.4490676856831799 -0.0227177874287005 1.6964654071140362 140 136 133
0.1366756635126115 -0.1552364551209091 1.2995373238868331 168 154 143
0.1153774614392015 -0.1517286829955310 1.3039342285523861 174 163 161
-0.2412702066761059 -0.1517991980448331 1.3282217991108325 78 74 89
-0.0040753664013010 -0.1519285022756105 1.3138964182197828 114 116 113
-0.4031846747367003 -0.1483768305768344 1.3392626138843422 56 51 55
-0.4866163326532340 -0.0118080315094848 1.7121713230170013 194 188 192
-0.3377011391926433 -0.1470230883410354 1.3359420127335075 195 190 187
0.3623357027216653 -0.1389281072102672 1.2624510005197753 74 79 82
-0.4629131865384981 -0.0014130125702282 1.7250388109481058 203 189 202
-0.4619184968372207 -0.1309809079176910 1.3649321003036485 198 188 186
-0.4071449129009810 0.0103685262352588 1.8101679729263223 108 99 94
0.3973849669193982 -0.1215763130429195 1.2849270141664986 103 118 115
0.0531920341769160 -0.1375732324518517 1.5203335589899047 205 196 187
0.0366266253700104 -0.1354464668228611 1.5324682673272627 185 186 180
0.2655674171722436 -0.1346040450473246 1.5115600740225248 154 139 144
0.1817503907772444 0.0240042053296967 1.9080368594869412 130 151 180
-0.0397525843413735 -0.1312616648449310 1.5326890116324805 203 190 184
0.2707613268165667 0.0239314838161912 1.8919115003527567 157 173 186
0.3012627948904306 0.0235520699269935 1.8886944193300677 28 33 52
-0.5367361390940203 0.0288718874290951 1.7478078068225733 52 51 57
0.4001637287446465 0.0171252259168003 1.5587297821522133 117 132 91
-0.5837400930260284 0.0310845607455985 1.7745251941934559 63 61 48
-0.2038357347657101 0.0314842319911954 1.9336848073132360 19 38 68
-0.0935598264252701 -0.1252996242865355 1.5435662543673760 191 183 170
0.0305074901433331 -0.1256563946549271 1.5330901350002675 186 167 169
0.1047309961383630 0.0325096278426023 1.9232082552941698 92 109 137
-0.0237226427108450 -0.1236995119006374 1.5412526617746405 197 176 175
0.3131733346433748 -0.1242706431023134 1.5077788697070251 184 171 180
0.3254864829727249 -0.1228038619033460 1.5126944464116876 149 151 148
0.1708019630627817 0.0421468707025839 1.9321878262471794 138 163 193
-0.0892240211698795 -0.1182756143198607 1.5520733705795915 181 171 169
0.2738705322450860 0.0442642663537421 1.9222617380547027 160 187 208
-0.1723879994176375 -0.1104040549138505 1.5673435289963631 199 192 184
-0.1750044228600843 -0.1054423285434632 1.5704683915579269 72 73 78
-0.1669361745985300 -0.1054228576670634 1.5702061928884516 72 75 84
-0.4295770157032507 -0.1010620491536759 1.5953229208183601 111 105 107
-0.5566622975893335 -0.0980588000186906 1.5795815105305513 76 75 71
0.1459212532100997 -0.0794167436873615 1.7706514322346210 32 43 73
-0.4261728077068951 -0.0534157266867059 1.6596045063678382 176 171 168
-0.4410709616495567 -0.0229451116194294 1.6964410526750620 184 175 178
-0.4587587572791869 -0.0137040084100305 1.7113194406559238 88 89 83
-0.1241204660673808 -0.2009120658945828 1.3230198020132684 115 113 114
0.2695843499542050 -0.0163043033259740 1.8349470668234458 109 131 170
0.3474999161996055 -0.0160089050160425 1.8278732896484302 81 92 110
-0.1967158778682999 -0.1985517108258638 1.3295695964565850 105 93 105
0.2483587764014753 -0.0146793676210531 1.8466937057252515 109 138 172
-0.3974554905385491 -0.1969091528492538 1.3448617676656778 160 149 153
-0.2991565418547035 -0.0021865353828671 1.9010837375610827 91 117 142
-0.1367476100454523 0.0039531399799132 1.9020091824999916 157 175 211
-0.0774055991196564 0.0096689636682310 1.9003915697192830 138 170 193
-0.2846130752939064 -0.1825150930594134 1.3371710813910975 101 95 107
0.0708700950406022 -0.1765329894555982 1.2757080758437576 151 147 135
0.0774517131054827 -0.1746165384590923 1.2807153207585389 178 171 165
0.2283261127378606 -0.1754720840143514 1.2728405852127502 133 127 131
-0.5798012148870784 0.0231587967263173 1.7678752144236871 114 103 101
0.2414980239754375 -0.1711199557671912 1.2733746309614613 230 224 224
-0.2289078855819511 0.0265675981576560 1.9296255594006673 128 148 173
-0.0677574141822767 0.0295957281445625 1.9254464854878748 19 27 48
0.2962218260908968 0.0302497752764466 1.8988547848178166 137 138 169
0.3629625461526587 0.0297677271779884 1.8927324461791988 106 118 144
-0.1307581105945561 0.0358101080459940 1.9369906113983364 160 182 205
0.2818245298771781 -0.1665734713450986 1.2742508263288079 121 108 115
0.4043417061350481 0.0236293877855014 1.4182217185013659 114 116 94
-0.2970205263633052 0.0448359123728982 1.9508693569993558 41 51 78
0.2209637805262419 -0.1598273072856993 1.2879152594040728 180 170 171
0.3306036620241259 -0.1556930356873209 1.2480327073799797 164 159 155
-0.1293605916802492 0.0510037598195451 1.9623141927754952 159 170 200
-0.4030980213364386 -0.1573123821736684 1.3369116654108220 54 55 50
0.2122222198199858 -0.1570610599094596 1.2956519828042132 172 169 152
-0.3252523706714132 -0.1548056713432974 1.3317396737144465 209 206 199
0.2807854579017071 0.0639259483933475 1.9433698329380895 106 140 167
0.1963395470525436 0.0669599674045459 1.9534436785353511 116 141 171
-0.1001607857704347 0.0726918939309476 1.9801383949088702 106 124 170
-0.0092347931986676 -0.1472335253704625 1.3169739447219477 177 167 166
-0.0526335810727096 -0.1446616633685752 1.3240553256796768 100 88 92
-0.0242947119544279 -0.1425188218516776 1.3231711838362541 178 157 162
0.4127782426925278 0.0758786790911680 1.6360382202173798 82 92 65
-0.0566376380934048 -0.1401946114404733 1.3299683751978491 157 146 142
-0.5630619527549221 0.1066490104655073 1.8781187391826590 133 122 120
0.1598945701972194 0.1042848718831526 1.9415741092440684 180 175 181
-0.4182622810506023 -0.1345217290963092 1.3466408327161885 169 168 166
-0.6019596748369159 0.1176505611512981 1.8481031868600395 143 136 128
-0.5603319447763500 0.1201792120603785 1.8925653426850040 132 121 119
0.3860695333748454 -0.1279888333621257 1.2798104946745128 157 152 149
-0.0017137160410967 0.1282102624646151 1.9524865072712205 201 193 190
-0.5625251088938539 0.1480828433185451 1.9298202598383103 31 27 26
0.1189807842248868 0.1461349958099676 1.9552301022372769 167 156 160
0.3800766435311154 0.1485995355738046 1.9069202799023615 154 153 158
-0.2032414211088137 -0.1245066573474174 1.5540596642742375 202 192 193
-0.0787650913862614 -0.1145572307960466 1.5607048974493989 132 117 114
-0.3868220076452404 0.1775487036551994 1.9592917388641040 88 74 87
-0.7474842840692089 0.1976409055975658 2.0842909735538364 126 127 121
-0.3432466513295305 0.1875656845026031 1.9656091620176197 190 186 183
-0.2015062858245249 0.1911624191038626 1.9841287587538865 113 114 118
-0.1564690552617231 0.1919320419503867 1.9849894010713136 127 123 120
-0.3833555576023759 0.1988598199539440 1.9889209014770968 86 87 82
-0.4313174997668083 0.2032928622538776 1.9952066213544148 97 95 96
0.4129827164561025 0.1953214918114827 1.9115839259008793 81 87 99
0.3854050307695481 0.1982706457125271 1.9210709176439973 148 139 140
-0.6188215723873597 0.2184379649177708 1.9499375242611796 23 28 24
-0.1610270815717487 0.2200186088755911 2.0014984304873060 163 164 158
-0.1578406126146547 0.2309696916172875 2.0164900404282298 92 92 94
0.2975052125019534 0.2230626209429752 1.9749317441060443 137 134 141
-0.5975777200579834 0.2453221350487844 2.0012351464360529 67 55 59
0.2786073979103774 -0.0804536836080349 1.7542140343847137 120 146 173
-0.0818512308003051 -0.0728023372858623 1.7946001794422886 24 33 50
-0.6677398445372335 0.2732364574733609 2.1015956697626850 140 157 125
-0.1544490935286705 -0.0697792782596697 1.7991592461962278 37 53 76
0.0541880664313878 0.2669756822019960 2.0500294080578083 78 79 81
0.1658559123798810 0.2702372831059915 2.0551430803993189 118 119 121
-0.6033898243633334 -0.0535657008711331 1.6572912133763054 109 97 81
0.2343007213888794 -0.0649983333390087 1.7848588552327131 81 96 115
0.0610034994912257 0.2726937825430774 2.0563092766167426 186 182 183
0.0919755333964517 0.2728040073968460 2.0523962752789831 167 164 159
0.0441390881567373 -0.0606858097084481 1.8101012740482594 105 132 159
-0.0709340836569078 -0.0566931959842073 1.8215356036594106 160 188 212
0.2320597689414651 0.2790820517087734 2.0584077253944102 187 182 178
-0.1437377964877353 -0.0553179836795969 1.8295907554805324 153 176 210
0.1734831987651435 0.2810459055718888 2.0610509958581060 161 163 160
0.1917841452860622 0.2865910639930263 2.0718796231169856 198 190 177
0.2914105169318368 -0.0565605428383227 1.7905296748926691 18 25 53
0.1496526330298562 -0.0557074835383648 1.8059647030128321 39 53 80
0.2827090570371936 0.2924034058146395 2.0718049363986228 120 116 113
-0.1505295714499257 -0.0503126771186809 1.8351471472350971 23 48 68
-0.0629348246585759 0.3027255283100236 2.1072609302155048 102 95 103
-0.7560657853066263 0.3214067475599099 2.1649603110477305 132 134 133
0.2540426723794004 0.3009584886531080 2.0834736578295261 113 113 111
-0.3220696789374202 0.3156494175369403 2.1329730723533804 167 167 165
-0.5945638042639957 0.3204835614302450 2.0872313114331056 96 96 94
0.3349102465509546 0.3135410157369423 2.0954712834251112 154 142 142
0.1798467669155267 0.3190215169305900 2.1118407873744145 135 135 135
0.1985210953926133 0.3192444040411423 2.1141192378919298 139 137 142
-0.6694286417963892 0.3464431987629663 2.1868075153923887 160 140 142
-0.3272240228247871 0.3413348250057576 2.1614379564091943 171 173 172
-0.6974697520510388 0.3569428760502428 2.1940927647152444 177 157 150
0.2945823300631262 -0.0194341838149862 1.8284302574485825 38 47 80
-0.4466155645100758 0.3478517326420956 2.1689132516467615 140 141 136
-0.0504363707004116 0.3392416696535286 2.1341508929208430 122 122 130
-0.5976997664998810 0.3509834964455882 2.1232374806006371 24 24 22
0.1552916102143699 0.3403913016555443 2.1103418459428913 155 153 156
-0.6429228143590860 -0.0021261300962248 1.6725236540178292 128 122 126
0.2237058776722539 0.3422658427853257 2.1021948685179521 191 195 194
0.3366539791379764 -0.0056519741368495 1.8504125195625585 69 84 103
0.3859521473706100 -0.0058878091864114 1.6714801081739148 122 120 121
-0.2480134588524186 0.3686394854243757 2.1361842903696040 126 120 122
-0.0641706090483656 0.0018495390128269 1.8961385344286354 158 178 202
0.3664496935736296 0.3534748472508197 2.0764788461157546 157 160 167
-0.3549179161443132 0.3720609405457847 2.1419985610715822 138 119 125
-0.6606865227206002 0.3845047966031661 2.1678819521742416 111 110 115
0.0879768010049519 0.3659357797828905 2.0964949685563488 165 172 178
-0.1436130657036142 0.0081358552688607 1.9093842456481078 40 55 84
0.4363554621369620 0.3573439879416687 2.0332003657159015 155 158 151
0.3378916976250439 0.3652480355399846 2.0726314175709866 102 109 115
-0.0193356226720247 0.3768128328582979 2.1033800307686046 126 135 130
-0.0114985450271821 0.3787330649856958 2.0979808351934777 178 156 158
-0.5361846382045112 0.4006718112752485 2.1345517493057651 70 67 58
0.4540084247754987 0.3720078232566233 2.0178040213039630 127 131 130
0.1614761461184330 0.0256418887403943 1.9031843005035844 45 52 70
-0.4937261467421800 0.4021382884017985 2.1219814444788354 77 69 67
-0.4058894949403788 0.4022902242704468 2.1235334433285411 194 196 195
0.4493984927805644 0.3828405832137731 2.0094275667871924 96 94 105
-0.1690358655998352 0.4039908012242911 2.0957334459335346 144 143 141
0.0875410153175961 0.3988834843281102 2.0740388315824174 170 174 173
0.2501806949230670 0.3963192494440555 2.0556985930665999 166 168 167
-0.2173113924877011 0.4094955274572148 2.1002102551973652 186 183 194
0.3129820468784115 0.0397451582256951 1.9180936795812911 116 126 161
0.0436785558476880 0.4065028152242812 2.0715090236483631 177 170 164
0.1650698355980299 0.0461169225578395 1.9413206787820418 45 52 81
-0.3130300724693760 0.4238177858527609 2.0967238955042014 166 168 167
-0.7251492611035054 0.4348288851282016 2.1057923976895379 50 55 51
-0.6842291049299015 0.4398984264532426 2.1275177938146421 94 107 100
-0.3887567843748564 0.0514587774971459 1.8678499577636052 157 143 142
0.2017050813419356 0.4220434840920346 2.0411481170022445 172 166 166
0.0602123161680220 0.4363410686779751 2.0479493450972992 190 190 188
-0.4952028703146886 0.0628543334979284 1.8078250847511561 97 98 93
-0.1695278187347199 0.4452122194576487 2.0663957892854481 152 157 153
0.4044236228101470 0.0503855135503553 1.6061779161649425 19 19 27
0.0992504573193340 0.4399485363607781 2.0398739450847239 198 196 197
-0.1575253821489419 0.4512833897414565 2.0585150772538290 154 160 160
-0.0487191763371306 0.4480662739983020 2.0493368120538977 151 136 139
0.2840503200802561 0.4396292648338047 2.0183116912741070 174 171 180
-0.7294433410530624 0.4694319438202136 2.0891960880948912 29 30 32
-0.4223482472968187 0.4609604598438251 2.0811143164336605 117 113 110
0.0925351800459571 0.4464659476228003 2.0342386163688171 133 133 135
-0.3545176546583702 0.4621719105387903 2.0738815223227363 187 187 187
-0.1155202225540022 0.0789971206016630 1.9835120431108755 36 46 71
-0.0953928930016832 0.4550260791454770 2.0510445001182656 143 137 139
-0.4345022237925863 0.4715726781058807 2.0748615910848187 162 162 164
-0.6237847801257053 0.0800877624875435 1.7906299509175572 69 63 49
0.2345742533219123 0.4526729087273632 2.0167030322440871 152 156 159
-0.3097329770506057 0.4709587127155501 2.0619436855843900 109 106 115
-0.1937278941308520 0.4679675772804127 2.0509230849796789 193 185 182
0.1563297753983915 0.4572576358530915 2.0165406248763809 147 131 132
0.3942074739016143 0.0827334514957274 1.7955904294747440 51 50 56
-0.3371761757008309 0.4777908911628717 2.0574375012022359 178 176 177
0.2897412878727409 0.4610076995647389 2.0012040840363579 134 134 144
0.4507323418447226 0.4551218942786489 1.9546410125630671 105 109 95
-0.4072027900500551 0.1171856219450653 1.8985221612319152 61 64 45
-0.4225315076772991 0.1299539696818970 1.9022001456227473 80 75 69
-0.4253632230390471 0.1395810154477617 1.9144949957822344 184 178 180
-0.4386959929644217 0.1409778708245800 1.9127504726329441 111 106 100
0.2081682250352078 0.1440285549748236 1.9463314616977549 152 129 147
0.3166952669578788 0.1443052703836987 1.9376642799247019 121 122 124
0.2034499608250402 0.1520683971519931 1.9523340932107454 178 168 169
-0.4289795256746223 0.1593632587420294 1.9355488902369213 180 176 175
-0.1217887824629734 0.1601963360133332 1.9771908735999220 165 163 166
-0.1363259390430503 0.1683030374133538 1.9764183899913961 55 41 54
-0.3809269104211769 0.1691022277389335 1.9485774812906982 175 174 172
0.1405656222641961 0.1677409232490974 1.9605212439973316 181 175 185
0.4123067994742775 0.1704765116198322 1.9059715643236070 71 70 75
-0.6076345492731309 0.1848123714982037 1.9244538402250080 41 40 35
-0.7810524937989950 0.2124553246012846 2.0990371032624644 162 161 159
0.4126177958831578 0.1843188775638967 1.9102334009745714 78 72 84
-0.6081424349056815 0.2239269766761728 1.9659332946435559 88 83 80
0.3034935227480400 0.2162492701430528 1.9674076387009471 176 146 156
-0.4346764649297676 0.2509124447456478 2.0528302596951642 177 171 173
0.4246548099935595 0.2359862738740278 1.9304479956209963 53 52 70
-0.5955505933150569 0.2619133144015622 2.0224240493220846 57 48 41
0.2455565149856586 0.2676073250514472 2.0350982974287759 146 136 135
0.3428754961089968 0.2681860650383796 2.0327588747918681 161 133 130
-0.2680559093877541 0.3008574282220562 2.1095000802088211 171 169 172
-0.5654732618052071 0.3069057228745672 2.0979286894088012 139 138 143
-0.5438192260154244 0.3255774167041756 2.1537502596077527 92 86 60
0.3546911921126000 0.3244782340803448 2.0972474517736579 67 62 69
-0.5917571412215125 0.3414929970182650 2.1192792558476197 105 102 95
-0.5932647064516308 0.3603182540183414 2.1256261032235986 98 97 93
0.0488685560573903 0.3544505968779478 2.1114531962716292 162 168 166
-0.5347233899798062 0.3837420204233178 2.1498406849032672 61 55 55
0.2820595601837367 0.3727143354684425 2.0703480950891713 155 153 156
-0.0032186466909411 0.3855565444402326 2.0950658245612770 143 154 150
-0.1648206668799308 0.3927039046373617 2.1070698573536415 174 173 181
0.1944525283361114 0.3930621968485501 2.0668670362941106 127 129 150
-0.2069859114841931 0.4078438020817987 2.0928676468681151 181 162 166
-0.3232717666438671 0.4134084340461395 2.1069181445625280 150 156 156
-0.5377839679151334 0.4212356916719720 2.1233091721255928 46 42 39
-0.5937976754630179 0.4164939444070926 2.0783169562069936 135 136 120
0.1252719664161851 0.4064593980343067 2.0588953175080285 162 159 166
-0.1559038520868616 0.4175313009747875 2.0826188845258566 145 157 147
0.2025660972286272 0.4121046838682283 2.0491289994291857 162 167 163
-0.3259147994397601 0.4316775040329300 2.0974761462045319 142 144 143
-0.0053742086961915 0.4227972744143032 2.0645054873323780 156 157 162
0.1934051429326780 0.4183438169615358 2.0469346516091038 142 145 154
-0.3340246277752600 0.4363041771982860 2.0846118564923888 167 169 168
-0.1301710101326400 0.4339671566871872 2.0696270920604416 178 181 186
0.3340476968034986 0.4288669340996137 2.0257631399601084 168 169 171
-0.4307116468289317 0.4557934696714576 2.0862874720440892 177 183 181
0.3235482961383127 0.4346648826089164 2.0179995546592511 104 92 116
-0.0337911114209754 0.4487012619782008 2.0513646204164111 153 151 156
0.1889213546332212 0.4463983011072558 2.0238703694076343 147 141 143
-0.1941159043594902 0.4565210479418891 2.0524820856960457 144 147 156
0.0535896918245264 0.4530269259726011 2.0321765690039419 131 130 135
-0.6028740280697107 0.4682142667082785 2.0337904900269197 48 42 42
-0.5381414363945085 0.4760613608930622 2.0752135833531162 64 65 49
-0.5134657887399469 0.4779862602713512 2.0759069137642450 103 103 103
0.3182642062189497 0.4552307228733837 2.0022407071149884 154 146 144
-0.7212089085873281 0.4990127507689203 2.0860706297668759 115 114 122
0.1326691911021353 0.4730384001593759 2.0080432401837478 165 163 164
0.2201444599045201 0.4824099771064773 1.9920325912504555 180 180 182
0.3388212328729946 0.4882441105487587 1.9736912220191889 152 150 155
0.4138682738128514 0.4794571920536223 1.9386950811162220 127 129 126
-0.5958450594560398 0.5064220171445533 2.0069508438332488 147 150 143
-0.3722971550351268 0.5207596658804935 2.0292641851480653 139 127 129
-0.2564663876622204 0.5231924579464368 2.0129259528881382 151 146 150
0.2595643174076824 0.3764734090591870 2.0738892798817821 168 170 167
-0.4589516625648369 0.4020107650795370 2.1240188317642597 59 59 47
0.3046204634692404 0.0131293272580632 1.8730460694412379 71 84 118
-0.5542781167250060 0.4356535396448046 2.0961318090404868 17 19 14
0.1440356804368075 0.4277973630154525 2.0433237253371628 170 171 175
-0.0920142666880368 0.4327201458132880 2.0581456149844843 154 152 153
0.1170086182979194 0.0392946909511524 1.9337956787164574 135 161 194
0.4254944995751129 0.4229474691806355 1.9845755098462736 85 87 86
-0.3775349852238524 0.4495276977581941 2.0712502991061625 167 171 172
0.2870512654810382 0.0423401003780689 1.9156314822608935 95 112 138
0.1743769785422496 0.4362936444738589 2.0321668840429439 180 175 182
-0.2943660053697404 0.4530912909305712 2.0736432492503818 189 188 193
-0.1366965549300192 0.0682810577239657 1.9774008719987013 107 129 166
-0.2803232736183074 0.4607287914878350 2.0652093056890437 151 160 157
0.2429954132353273 0.4623731344865837 2.0097342822010584 191 191 203
-0.4379286123957947 0.0974152170930601 1.8632764287067471 168 167 163
-0.4577998284483982 0.1088213508065944 1.8713819970889625 176 175 171
-0.0935552136214091 0.4852986353076923 2.0297059726311608 176 165 171
-0.5879258143153551 0.1538217226445869 1.8990934972911540 139 138 143
-0.0666173048959725 0.1564540542723662 1.9760316023106210 164 164 162
-0.5924742560346192 0.1861746750087271 1.9347184546549052 74 58 59
-0.7309736811861972 0.2133014364326325 2.0935481382904695 96 92 93
-0.2783058283512266 0.2218853363272466 2.0008627450459331 182 171 177
-0.6999820814017278 0.2965132057766440 2.1235876640530060 164 159 156
0.3373615861451691 0.2792705983524849 2.0447956330858874 130 124 124
0.0104688108592664 0.2881646832655663 2.0805894942999816 94 88 102
-0.2622316215157199 -0.2004596191853929 1.3339402030922884 179 176 169
-0.5696436741269750 0.3510930113926343 2.1444252155661361 70 65 69
-0.2841937469914067 -0.2034917170057358 1.3362129422979863 181 168 177
-0.4025923866857040 -0.1919672720100984 1.3457779272399213 57 51 55
-0.5606322368721286 0.3619684664579051 2.1406263749036492 129 127 128
-0.2780338882100203 -0.1863265912868788 1.3365038765045589 188 179 170
0.2644143418804787 -0.1792168103806028 1.2643833979719465 165 156 157
0.2105004142655867 -0.1730075257208187 1.2749376485381474 179 170 163
-0.3335495076405014 -0.1925234328290391 1.3431835856742629 115 114 119
-0.2906266941911094 0.3747796558676435 2.1327578023477907 188 189 194
0.1912578021578898 -0.1762411825208329 1.2697834806276562 208 196 180
-0.0274477954580966 0.3698134542660060 2.1126533167248125 166 166 166
-0.0002105463619413 -0.1607283322575105 1.2974324318828816 204 198 198
0.3801716653244491 0.3625319883823681 2.0640841857613834 158 159 153
0.2002429484874313 -0.1731322460484374 1.2718138512189250 133 128 124
0.4477191187708603 0.3590273445199351 2.0308420098878672 88 84 81
0.3101313681866774 -0.1699850892117813 1.2640076432305942 138 123 128
0.2282605877443228 -0.1590246098980872 1.2870144872391087 144 133 129
0.2634142153144626 -0.1666844673870786 1.2744463122366618 134 119 124
0.1888752270443477 -0.1651914624887578 1.2795101996979745 125 114 118
-0.3094294612060879 -0.1548773911940973 1.3363084988334366 194 193 191
0.2923027349587219 0.3828235819883983 2.0663832784713851 131 130 138
-0.3346620822915216 -0.1527153586647386 1.3335168961509551 81 70 74
-0.0591386409064875 -0.1516449874642276 1.3160896028004769 185 174 178
-0.2324063527597800 0.4022959196230149 2.1026675779405966 178 182 185
0.0425924373392938 0.3961652363863617 2.0824435969622690 170 155 150
0.2496514980784850 -0.1638413127553412 1.2741219382869338 141 132 133
0.0111592859526776 -0.1451159231441899 1.3173174747334504 182 160 162
-0.4203709218019027 -0.1434761404858133 1.3350617446852167 134 128 128
-0.0012224352537794 0.4040114441210318 2.0767933753817451 142 150 139
0.3483960012552031 -0.1418016961371292 1.2624029685496378 123 115 112
0.3129404487779791 -0.1533758770594535 1.2860332998040296 126 122 121
-0.3168990957471022 -0.1487774279281214 1.3401009252463336 76 61 64
-0.1236574149646811 -0.1400002930456530 1.3342705873719201 136 113 131
-0.4065889707904495 0.4284230749583011 2.1050751781345354 183 182 187
-0.0483115856681111 0.4174741662271880 2.0725749998406680 92 80 82
0.2811638444546736 0.4144890423991015 2.0400720811118345 164 164 166
0.2238165874853587 0.4330276634896371 2.0382966521016685 187 183 184
0.1990857304519567 0.4376067160958096 2.0302809371100805 172 166 166
0.3651654051843589 0.4335356538827964 2.0114975171750573 133 136 141
0.0996860443236976 0.4542331929945442 2.0287396795894783 199 199 201
0.1137270127453978 0.4536825913565609 2.0261181408004800 156 160 171
-0.1382916757863005 0.4616635628144594 2.0499101787293266 91 87 75
0.1652698821186644 0.4603278561186374 2.0168814347138468 203 204 206
-0.0300072249494085 -0.1292349735549364 1.5354992972733499 153 133 132
0.3295095886417452 -0.1270320642850872 1.5106221570506395 131 135 144
0.2715686450851423 0.4725073549396776 1.9951997118053877 150 134 137
-0.4382296021502116 -0.1138321658983123 1.5750209244475282 199 190 183
-0.1494678775992223 -0.1137389207736182 1.5645397940421226 120 111 104
-0.2984009710726706 0.4903049462292351 2.0414337466720114 196 199 192
-0.5773455598739290 0.5022164027823158 2.0293658537643853 98 88 89
0.3813196271036512 -0.1042129444261766 1.4995231609348136 109 109 111
0.1424292490562943 0.4841901259731552 1.9985496082673082 186 186 184
-0.5589168131665407 0.5100596947571652 2.0415966758673036 52 48 45
-0.2887323864913052 0.5049171014026119 2.0314055871451764 157 155 156
-0.1099095846365298 0.5028482798832757 2.0179314427469985 187 186 192
-0.3457788776634385 0.5165936558078019 2.0312175414800411 179 177 180
-0.1847225369442693 -0.1058793867505204 1.5681264782867261 65 64 82
-0.4527891929199860 0.5277094068839751 2.0287716639175142 152 147 153
-0.4235134619698968 0.5357417791144453 2.0258191067911229 131 115 118
0.2148284476284899 -0.1808158821860046 1.2653231484076781 184 173 171
-0.1860011535171708 -0.0634337976157986 1.8164421306560434 72 98 133
-0.3650541264404414 -0.0823459533630336 1.6148000562382974 203 187 187
-0.4524921754690812 -0.0476101456296900 1.6616123743412183 187 175 177
-0.4148084365144837 -0.0789657993172499 1.6250075047590522 201 190 186
-0.0052510464934736 -0.1708809527100061 1.2882251213282299 86 80 90
0.3991788234626026 -0.1585904040540945 1.2333848654831270 105 114 111
0.2919936129938084 -0.1540382206598114 1.2864626531210241 189 189 181
0.2798464946727186 -0.0616561272782664 1.7783830948750554 120 144 178
-0.4112131768625145 -0.0421924517421877 1.6745467129854212 178 177 175
-0.1498322201653115 0.0227311826016578 1.9247511044944232 122 157 179
-0.4613674250501685 0.0542334467486106 1.8113282605834280 178 174 175
0.0822421992148338 0.0625433250560415 1.9562331369228616 111 132 175
-0.4725731165081191 0.0649755243207579 1.8203485737475256 92 71 70
-0.5928628182210797 0.1389223688634278 1.8787511514683974 163 153 154
-0.5874618579476840 0.1723555546893147 1.9226348143941774 179 167 167
-0.5770232319588020 0.2312309509083561 1.9989366938109527 161 158 149
0.1203008962419851 0.2658142159426877 2.0519605756013441 166 160 172
-0.6804554960814836 0.3382328631335433 2.1876909994423026 119 113 115
-0.4115399874143983 0.3416880918437847 2.1564331842833586 127 127 125
-0.0818084091362979 0.3340568670896472 2.1363266542691339 144 143 141
-0.5050333748282811 0.1254493037831930 1.8811280726816728 186 175 179
-0.4854157739323230 0.1350981480819442 1.8970518434769230 68 62 62
-0.1264440903709222 0.1443276924258395 1.9730067561971525 159 149 157
0.4290793050123832 0.3329878342231137 2.0557474195034442 67 67 77
0.3765623890011501 0.1384128478824960 1.9087830556707295 130 130 130
-0.0874614715105426 0.1603315197887587 1.9819343438197621 188 182 182
-0.1166141496982820 0.1645685889637422 1.9835387306582277 149 144 148
-0.0866668237247359 0.3725124347405449 2.1136061304704210 142 143 138
0.2466424857355337 0.1587826663675616 1.9550871164367500 171 161 169
-0.3628264244170179 0.2041697008589227 1.9889420281210926 175 179 180
-0.5273842877637203 0.2542865597716405 2.0728243289122612 142 144 139
0.1013691379902577 0.2516231102069441 2.0423784405034215 127 123 120
0.1057516675215383 0.2777125559241427 2.0654462138598659 109 111 100
-0.3503512408696481 0.3226066671116145 2.1524148535625174 169 168 166
0.3055240615507807 0.3871795020128581 2.0549516271247028 141 141 151
0.0572437088332146 0.4102123688011061 2.0635907945261089 148 150 139
-0.6929307886903836 0.4525951229091770 2.1182178046002318 114 113 108
0.4383775044952441 0.4604538889658401 1.9487841658485536 119 122 115
0.1546133537831998 0.4817916289741842 1.9992520674041840 136 123 114
-0.0557129103295099 0.4890522606981662 2.0227946829675343 154 156 155
-0.4636469241974961 0.5099257758187170 2.0416948736949956 62 45 37
-0.5868902901620189 0.5217517222403781 2.0119306680686999 110 107 102
-0.2246942228803302 0.4129509423517562 2.0930425909131856 173 173 173
-0.1194577783246030 0.1080850587581220 1.9681783669077759 143 137 139
-0.7199923987669201 0.2288054781939372 2.1026627533118267 151 150 145
0.3982101287161741 0.1988498596921280 1.9158371336694633 177 179 178
0.1557422125527614 0.2429059803760963 2.0199662524185595 122 126 129
-0.4354079802666308 0.3143166873659476 2.1338432537423206 168 167 163
-0.1522775075930144 0.3641757444094348 2.1203622323784659 170 170 178
-0.5792598529597338 -0.0756479905063009 1.6332308515637748 200 188 188
0.3877115049946092 -0.1290258676298799 1.2737180378417152 137 136 134
0.1353982769701422 0.4059468245002559 2.0745597924310206 162 166 169
0.2853540136870389 0.1514886569141606 1.9476727164373899 159 147 147
-0.5330469914416288 -0.0429011782115865 1.6589418298485583 219 201 197
-0.0919825357601691 -0.0125780924441968 1.8753774291580390 117 148 195
0.1264324541362508 0.2408960620924911 1.9998581366891155 175 172 183
0.0720600268558285 0.2499681543313637 2.0237668942818314 164 160 161
-0.5913094404280882 0.3130318581590122 2.0818952562965616 54 55 50
-0.5420723243224753 0.3456347521277769 2.1633061383327137 60 57 52
-0.5193471019575662 0.3717525413526155 2.1647005852034811 149 140 133
-0.5905176992606923 0.0337169217980107 1.7634348967191995 65 55 54
-0.5912636258443580 0.3659215735966276 2.1300854389234272 79 81 67
0.3554124523209497 0.4331245016005115 2.0100312216230667 174 171 180
-0.3971042662969967 0.4285208942991229 2.0920333804293429 154 155 157
-0.3280536367299843 0.1149131925000460 1.9317348221477846 163 163 161
-0.4262254710620220 0.1738116815906015 1.9411105081836419 180 178 181
0.4504231711009487 0.3346564836282059 1.8195449689704368 94 86 84
0.0992236784605034 -0.0113600468746557 1.8649309660361375 108 129 150
0.1298479508825802 -0.0080205767253130 1.8692043806127130 115 134 167
0.2839045737010459 -0.0079142734145402 1.8460759696341864 140 157 175
-0.0884583373975562 0.0133038585405839 1.9026756223884431 138 158 185
-0.1658505605251896 0.0275639349391891 1.9277361732450324 8 31 65
0.2696305886393920 0.0107306775214802 1.8726917407110630 23 43 76
0.1455066279368099 0.0468628305882455 1.9335841415828501 80 110 144
-0.0565311004068264 -0.1519381559731986 1.5119070579168421 113 108 104
-0.0267924970347418 -0.1287969585009867 1.5349334387914426 169 151 149
-0.0550253985915728 -0.1280326759207829 1.5405718254241338 120 104 107
0.1034886436900827 -0.1236450764117642 1.5327243149063836 198 183 186
0.0790271909207997 -0.1189702592819270 1.5416632107064381 124 128 114
-0.1033953925556783 0.1518235316981061 1.9672683453086508 62 57 51
-0.1661492799281553 -0.0960337904267932 1.5775561097077573 91 91 81
-0.1330313659816479 0.1821746775507366 1.9792905279278530 175 160 167
-0.1441915736893736 0.2079066553016608 1.9819420678692439 104 101 92
0.2654296696638123 -0.1177818429781283 1.7079749794023944 125 139 150
-0.1426939947538584 0.2154665966217801 1.9894568229655831 135 135 135
-0.2044222493933092 -0.1780030313602252 1.4805814194216023 137 124 118
-0.2812687633704681 -0.1331627348258938 1.3535346766131733 153 153 151
-0.2364273302311589 -0.1323086010087869 1.3528562371538604 121 106 103
-0.2325628810750128 -0.1315793303327421 1.3523633475562906 153 128 134
0.0920106295877250 -0.1340877231308805 1.3282530315212244 134 118 121
0.3533198613119183 -0.1055395774615041 1.3098331221652237 166 167 161
-0.1564942382209695 -0.0747130020610615 1.7938791338939963 143 168 199
-0.0236357293591675 -0.1804969221338429 1.4654588065839094 167 151 154
0.0164720732033183 -0.1546580623539441 1.4983945184214347 109 104 101
0.1399756974356945 -0.1850397992949314 1.4552226917841711 136 122 122
0.1430629394924183 -0.0821545069024861 1.7665197157396355 16 32 68
-0.1783480287545785 -0.1329958569415862 1.5378038505398182 69 63 63
0.1086479517932892 -0.1411449331818405 1.5128833807265696 181 165 168
-0.1609791368113958 -0.1298845040187378 1.5460872273415516 132 114 110
-0.2033727961564190 -0.1274129935224421 1.5483005034502293 190 185 192
-0.1946977855438995 -0.1258884307448966 1.5480572307240890 143 134 137
-0.3902350253327886 -0.1527032668284148 1.5247440306256994 126 119 100
0.0048886624017329 0.2455126836441507 2.0265301999442382 131 125 127
0.2085046729937498 -0.1249453040673594 1.5267971455784026 210 194 194
0.2621544316943201 -0.1247188714687759 1.5250470925727437 193 190 185
-0.2029810540216598 -0.1066520304634336 1.5792670267520688 125 121 122
0.0182272853789788 -0.1553344904760610 1.4995052786942227 153 143 142
-0.1715907468133921 -0.0936452442328083 1.6628470852644655 64 50 50
-0.1063421834628796 -0.1356723654692549 1.5307522407206049 142 139 132
-0.0648810184677742 0.2768168427192720 2.0679886095862070 68 64 63
-0.3333621368407454 -0.1177782582642419 1.5646087685515675 120 118 119
-0.5593803164857957 -0.1033017153055325 1.5738251385955064 151 148 139
0.2674601360326910 -0.1009634190966549 1.7303928912644599 49 57 80
-0.0780532522291619 -0.1193437096090234 1.5513734851303933 186 175 171
0.1183813005919274 -0.0907530144714832 1.7553323435386201 114 126 150
-0.3321099521755777 -0.0977314885008550 1.5930113448948715 197 189 186
-0.1885683615660406 -0.0906139589906462 1.5929431119271189 136 134 135
0.1537950830156198 -0.0605227705215296 1.8002946032290690 154 170 195
-0.3735714552556630 -0.0751457478980836 1.6304291343403809 127 121 135
-0.1733014356430477 -0.0926302374842955 1.6605500742536266 138 132 136
0.2631273980128397 -0.1148140295920893 1.7123470662051117 129 143 170
-0.0730834923984467 0.0118227392896221 1.9041137376738537 58 75 118
0.2651464760528263 -0.1003887875531837 1.7305871867128593 121 129 150
0.3600681418355888 -0.0992192122175287 1.7055409146653566 1 2 33
0.1062040482514751 0.0234511335770930 1.9137328388079136 69 90 111
-0.4504329672710258 -0.0246963764934775 1.6950616995546477 150 150 140
0.4020017714380328 0.0795897139413734 1.7908563841507883 126 128 117
0.2722578329924814 0.0643074557271610 1.9449371455495306 116 126 136
-0.0431556034682876 -0.0589946384993043 1.8143701467908551 59 84 114
0.1564597751311777 -0.0621017772072830 1.7972550237436640 123 134 164
0.2483496714875191 -0.0603149351815813 1.7897266015093178 68 96 133
-0.1309918654390770 0.1336837798200129 1.9587723586230263 144 144 154
0.1262587249147240 -0.0511629093520627 1.8102645121602254 176 190 216
-0.1239553794122410 0.1369011912394521 1.9616255533464522 162 160 161
0.1462394432676194 -0.0496431364069943 1.8077779293200213 149 155 167
-0.3874328085263337 0.1659809832743475 1.9440563211489137 131 122 127
-0.2110917623175910 0.1568551974348877 1.9853926581844035 180 171 176
-0.0835132483440883 -0.0227930523615312 1.8593017553360494 99 125 160
0.4083258320325275 0.0355287551701845 1.5801843640742792 177 178 170
0.1633889055033627 -0.0167045536626938 1.8539241374689850 127 142 175
-0.1168652910193134 0.2170717625293456 1.9871587925072240 204 189 192
-0.0131375827642751 0.2186320347140558 1.9906250971631583 71 67 84
-0.0032704082862633 0.2199358500232431 1.9927121476478669 84 74 85
0.3824727955652036 -0.0146928290847092 1.8312448712509695 48 44 67
0.3836349600680268 -0.0131161036815950 1.8328815020573270 212 205 197
-0.4747808325167420 0.0637031050277908 1.8129802384676232 65 58 39
-0.5718906849526026 0.0767128560318731 1.8414071994899177 68 60 57
0.2665751091841644 0.2464248824208598 2.0135123713077467 133 138 131
0.0149088935482837 0.0217703175944233 1.9093608743707073 92 109 135
-0.5288993812562336 0.0940650825939912 1.8307278925580834 78 81 50
-0.0931325310408821 0.0471736481213680 1.9534789721859216 155 173 197
0.3994889082887725 0.0799945550429886 1.7915357826802643 84 83 88
0.3951455677707836 0.0859075791253244 1.7985321591182091 110 114 100
-0.4386830212904243 0.1424267429161817 1.9150945526986323 150 143 151
-0.4114662640698142 0.1636480296979768 1.9380388935264214 175 167 164
-0.1040836746966134 0.1483359580874900 1.9651563963619088 62 54 51
-0.3373347652158951 0.1916959413445530 1.9796095882034050 200 196 197
-0.4266452290749806 0.2054452610174642 1.9976591655970219 196 187 190
0.2672196142422898 0.2124737210739039 1.9642275549269907 165 156 159
-0.0003620373253069 0.2402265686799671 2.0174473441563356 154 155 157
0.3623710027617911 0.2268496205187924 1.9588795692002676 182 184 173
0.1848454702591671 0.2450466608029870 2.0137065344467651 119 117 128
-0.5742023578008508 0.2985959949596606 2.0811816312907725 85 78 85
0.1712036558052796 0.2514799775329563 2.0256080089903468 148 145 154
-0.2686679239840121 0.2860200202054947 2.0961446611436321 179 176 169
-0.0672392069397427 0.2797602317737118 2.0740653413214960 160 158 169
-0.2734616598645381 0.3124503818346394 2.1296412633418003 173 163 164
0.0992179335445172 0.2903216323484208 2.0875214994232132 156 150 162
0.2809892098152078 0.3138944698961054 2.1046109403652409 160 152 149
-0.2064031092022075 0.1342765034054635 1.9701283754727350 88 78 79
-0.3723954679855347 0.1546493211892151 1.9407670843264009 141 132 137
0.4117884427780117 0.1174358305057146 1.8392738362938721 61 65 74
0.4146257006816531 0.1436926038733511 1.7207877783174688 44 39 43
-0.0023850317471873 -0.1367963892393958 1.5211921785733309 187 172 165
0.0452483598891773 -0.1394290097908781 1.5224875535738636 190 180 178
0.0553339356861310 -0.1374437121315356 1.5184619741173189 188 183 180
0.1068068785859509 -0.1394988575597140 1.5163388957373749 134 118 118
-0.0928428738359762 -0.1311698795058003 1.5366234428063383 126 105 112
-0.4768845559448912 -0.1170976747032474 1.5757249057282516 183 178 172
0.1720906549831230 -0.1396716699913553 1.5097377849790063 186 170 173
0.0445322330575901 -0.1347106761215052 1.5294885338588267 200 190 189
-0.1255113286004303 -0.1281053028057257 1.5500225180220362 108 91 97
0.0591188723338450 -0.1313506941179853 1.5266939235238015 201 186 179
-0.0350211238330293 -0.1273792297259355 1.5370766178149875 127 110 120
-0.0224515795836593 -0.1276880947086473 1.5363198699288048 110 97 104
-0.4796355738838110 0.2067510042375237 1.9891558485359018 135 131 120
-0.1562482981863635 -0.1215871047008589 1.5548732439556230 165 156 141
-0.7110956546969430 0.2201780179448670 2.0969966322823637 121 120 115
-0.2735798290825094 0.2034002610350425 1.9851893823085964 209 199 197
-0.3800677169780791 0.2108866537439545 2.0004843201380074 117 102 105
-0.7105451701900993 0.2279457150318364 2.1007943307593910 123 125 112
0.4336193385551372 0.1900080500860965 1.7819563612095728 109 121 101
-0.5842924633171318 0.2341837649314261 1.9970298445273948 105 97 95
0.4124376795954628 0.1772819760412237 1.9092508997794704 78 82 85
0.3657667296335921 -0.1265939545497888 1.4805127599541430 199 200 182
-0.3456184608143686 0.2189348653080057 2.0107333530821192 169 166 161
-0.1540232589429178 0.2254652771152060 2.0109984357954316 127 126 122
-0.1069411343364444 0.2257808914397939 2.0043414141405513 147 135 145
-0.2443816966586328 -0.1055819222830611 1.5778042109004962 133 118 125
-0.2875730633461274 0.2464179698495169 2.0438378581173295 168 157 161
-0.0026502423837088 0.2310366075908214 2.0051992215335255 162 162 164
-0.4676351460672112 0.2623357777411666 2.0652724904667910 81 71 70
-0.2372680771366877 0.2469663146311996 2.0439290216850643 194 192 195
-0.2922210712329067 -0.0986583238518548 1.5911713503863516 110 100 111
-0.2867219685325558 0.2535833079199193 2.0538359943342592 174 162 166
