ply
format ascii 1.0
element vertex 1138
property float x
property float y
property float z
property uchar red
property uchar green
property uchar blue
end_header
-0.200392  -0.20105   1.39782 113  92  97
-0.309241 -0.175675   1.43211 145 136 137
 0.079784 -0.178484   1.40654 125 118 112
-0.0389065  -0.176115    1.41609 120 109 103
  0.363634 -0.0284099    1.74432 120 120 122
 -0.35739 -0.155462   1.45748 194 183 189
-0.528075 -0.134586   1.47084 148 143 137
-0.0443675   -0.15496    1.44589 213 202 198
-0.56898 0.110655  1.77277 55 41 32
-0.0445309  -0.127632    1.48052 177 165 165
   0.366527 -0.00468083     1.77791 115 110 117
   0.369641 -0.00226864     1.78198 63 59 82
-0.568075  0.118544   1.78465 57 54 65
 -0.39865 -0.110855   1.52328 224 212 214
  0.257011 0.00738025     1.8108  75  95 128
-0.308947 -0.103301   1.52529 202 194 183
 -0.327769 -0.0924148    1.54166 187 190 173
-0.562239  0.139039    1.8141 122 112 103
 0.39469 0.093457  1.74777 100 100  98
  -0.30029 -0.0923972    1.54156 84 84 76
-0.561664  0.142254   1.81732 140 131 126
-0.560233  0.147865   1.82395 145 131 144
 -0.683394 -0.0945408    1.60517 45 53 42
 -0.559912 -0.0698835     1.5823 78 69 64
0.0936113 0.0379586   1.85812 148 164 179
 -0.128556 -0.0991315    1.58257 34 25 26
-0.587652 -0.035082    1.5881 161 131 141
-0.585821 -0.020654   1.60672 144 134 125
   -0.5692 -0.0200108    1.61913 53 55 31
-0.428745  0.144081   1.85533 107  97 106
 -0.424581 -0.0314668    1.62731 146 129 137
  0.376421 -0.0483225    1.56601 220 218 203
-0.240137  0.118803   1.87665 97 79 79
-0.336438  0.151569   1.85951 195 182 176
-0.555573  0.177856   1.86183 112  93  95
0.382303  0.04112  1.53541 109 116 126
-0.302221  0.150044   1.86474 107  97 105
  0.251359 -0.0989265    1.66524  80 101 128
-0.579582 0.0257874   1.66909 125 112  95
-0.00540796    0.115507     1.86631 187 175 179
-0.584621  0.200778   1.86379 74 77 94
-0.347335  0.159052   1.87384 129 127 141
 0.382376 0.0673508   1.56883 146 151 155
-0.55414 0.190177   1.8799 125 115 116
-0.553482  0.193819   1.88301 106  99  83
0.00329353   0.137468    1.88104 210 202 200
-0.453434  0.185363   1.89275 167 162 156
-0.0130069 -0.0289088    1.78265  91 110 140
 0.0952331 -0.0238836    1.78015 120 136 172
-0.440181  0.189144   1.91699 66 67 62
-0.565398  0.101539   1.76808 104 100  91
-0.111566  0.194818   1.89618 127 118 121
    0.265462 -0.000411209      1.79119  62  82 115
-0.0822029   0.198276    1.90772 189 183 183
-0.060865  0.205298   1.91537 197 191 191
-0.179059  0.215325   1.93705 191 174 182
-0.314769  0.221004   1.95104 126 120 124
-0.474033   0.23733   1.95649 175 172 165
-0.434944  0.228369   1.96873 59 54 58
-0.267607  0.237076   1.96942  98  93 113
-0.190278  0.113632   1.87681 88 78 79
-0.125581  0.115683   1.86758  98  97 105
-0.538576  0.276088   1.99373 74 78 79
-0.258165   0.25171   1.98738 173 173 175
-0.358285  0.260468   2.00427 129 126 137
-0.249452  0.257075    1.9963 179 176 169
 0.26443 0.243084  1.95042 175 164 160
0.0312509  0.252561   1.97131  98  97 111
-0.0945233   0.148512    1.88504 192 188 185
  -0.399 0.180812  1.90288 196 187 190
0.028201 0.261125  1.98314 169 158 162
-0.424186  0.296532   2.05287 87 61 72
-0.018647  0.193667   1.89747 84 76 97
-0.135719  0.203429   1.91691 213 208 204
-0.142376  0.212933   1.92902 96 92 91
0.217446 0.233211  1.94057 185 175 173
-0.0587285   0.250799    1.97552 160 158 169
-0.405562 -0.139574   1.30412 141 135 147
-0.305847 -0.137783   1.30308 115 108  98
-0.530681  -0.12996   1.30494 147 147 145
0.0156399 -0.209768    1.3711 108 100  81
-0.199422 -0.205501   1.39065 179 172 166
0.0275126 -0.207768   1.37626 159 152 144
0.0209576 -0.196512   1.38801 95 84 88
 -0.35881 -0.188646   1.41673 137 126 130
 0.187907 -0.206869   1.36975 159 152 146
-0.502261 -0.182424   1.42004 135 124 120
-0.121553 -0.194052   1.39826 117 103 100
0.0874424 -0.189128   1.39593 107  95  97
-0.608724 -0.148602   1.43493 142 130 134
-0.0636132  -0.188021    1.40161 173 160 154
-0.365538 -0.179259   1.43035 121 111 119
-0.447436 -0.164601   1.44888 140 135 129
-0.207223 -0.170813   1.43284 113 110 103
-0.360577 -0.167036   1.44657 208 198 199
-0.194296  -0.16579   1.43924 198 187 191
0.0355534 -0.170856   1.42395 197 190 180
-0.0455864  -0.160273    1.44267 203 192 186
0.00884781  -0.155538    1.44109 154 142 130
0.0834145 -0.155094   1.43675 128 127 123
 0.011378 -0.153468   1.44309 191 184 176
0.0859368 -0.141853   1.45463 131 123 112
 0.350178 -0.123863   1.42708 79 80 84
 -0.44365 -0.126387   1.50315 128 123 119
-0.00946852   -0.135975     1.46716 128 122 132
-0.138231 -0.135003   1.48223 176 166 156
-0.111032 -0.135913   1.48086 202 188 188
-0.495272 -0.116053   1.50359 38 30 27
-0.160254  -0.11473   1.49969 72 73 78
-0.170459 -0.105635   1.50403 53 55 44
-0.139018 -0.108795   1.50537 187 174 168
-0.302997 -0.103671   1.52717 200 195 191
 -0.397116 -0.0915197    1.54698 118 116 119
 -0.398825 -0.0987137    1.53708 119 113 113
-0.299528 -0.101895   1.52992 94 78 91
 -0.350759 -0.0908141     1.5448 126 114 126
-0.342179 -0.085291   1.55126 216 204 204
 -0.346656 -0.0813901    1.55778 189 185 186
 -0.379552 -0.0658113    1.57947 109 110 104
 -0.488572 -0.0470566    1.58966 195 188 178
 -0.142163 -0.0977367     1.5894 151 145 145
 -0.572575 -0.0319972    1.59738 152 145 117
  -0.48577 -0.0390151     1.6007 60 57 26
 0.110931 -0.136382    1.6341 29 44 73
 0.348713 -0.131679   1.61554 126 114 118
 0.276333 -0.135126   1.62473 105 119 132
 0.112055 -0.130552   1.64183 140 158 172
-0.0938706   -0.12148    1.65996 58 56 77
  -0.589228 3.10672e-05     1.63003 134 119 100
 0.384615 0.0392619   1.53421 44 42 66
-0.158319 -0.102172   1.68859 62 70 93
 -0.344161 -0.0545368    1.65881 155 148 138
  0.362118 -0.0292567    1.59115 53 52 57
-0.0910888  -0.104054    1.68367 71 68 85
 -0.450857 0.00547466    1.67458 120 114 118
 -0.370642 -0.0346683    1.68167 150 144 132
-0.0217589 -0.0791315    1.71735 102 113 145
  0.262561 -0.0747749    1.69677 65 70 92
 -0.156568 -0.0850497    1.71172 58 57 91
  0.319977 -0.0908781    1.66964 155 167 183
  0.364084 -0.0147487    1.61536 161 158 153
  0.112378 -0.0911193    1.69651 141 166 188
-0.0866898 -0.0691182    1.73026 80 81 99
-0.570569 0.0518301   1.69287 78 82 65
-0.271928 -0.065614   1.74963  72  76 111
-0.486742 0.0470156   1.71324 132 119 126
 -0.144783 -0.0170934    1.80008 80 82 97
-0.367672 0.0454146   1.79129 159 155 156
-0.429787 0.0808262   1.77167 175 166 161
 0.379812 0.0608156   1.70865 125 125 113
 -0.0742594 -0.00232493     1.81452  65  74 103
 -0.241854 0.00440432    1.82855 118 134 167
-0.353202 0.0541237   1.80309 119 120 112
 0.334309 0.0072282   1.79757 146 154 173
-0.321821 0.0826012   1.83506 178 177 175
0.403912 0.162452  1.69703 28 30 42
-0.565999  0.155881   1.83122 100  91  86
-0.346727  0.128765   1.84048 104  90  77
0.0730821  0.110056    1.8571 111 110 118
-0.0142522   0.115616    1.86719 196 193 184
-0.0956135   0.129703    1.87311 202 195 185
-0.200232  0.170687   1.88863 189 174 171
-0.405111  0.184651   1.90346 170 167 158
-0.218598  0.194872   1.91052 122 116 128
-0.118631  0.198346   1.89901 144 141 136
-0.0359233   0.193671    1.89887  93  93 117
-0.0286692   0.193474    1.89831 63 59 74
-0.398961  0.208104    1.9376 143 130 137
0.144486  0.19626  1.89233 169 157 161
-0.108078  0.204797   1.91583 180 171 172
-0.0753018   0.206178    1.91635 122 119 126
-0.148311  0.208807   1.92278 171 168 161
0.0525786  0.208305   1.91937 80 72 83
0.0506323  0.223754   1.93607 156 151 145
-0.0167086   0.246524    1.96665  76  75 106
-0.310414  0.257896   1.99851 123 118 112
-0.218702  0.258824    1.9953  98  95 116
0.063474 0.266358   1.9907 180 177 170
0.190576 0.263544  1.97984 199 191 180
-0.236563  0.286744   2.03326 85 73 75
0.268461 0.271758  1.98764 169 164 160
-0.464436  0.306284   2.04588 149 152 159
-0.250917  0.298105   2.04869 168 166 171
0.239763  0.28772  2.00711 169 154 151
-0.0332972   0.297833    2.03522 77 69 80
-0.172923 -0.122689   1.49417 201 189 191
-0.178382 -0.117812    1.4961 140 140 132
   0.35691 -0.0939446    1.45881 181 178 171
-0.615769 -0.082883   1.34004 157 132 136
0.0234254 -0.207086   1.37601 97 86 94
 -0.337202 -0.0757699    1.56302 195 185 183
-0.172352 -0.102537   1.57012 84 75 76
 0.115099 -0.199506   1.38048 179 168 164
-0.264057 -0.185109   1.41598 181 171 162
-0.315162  -0.18401   1.42191 186 172 159
-0.201526  -0.18394   1.41575 114  99 102
0.0941417 -0.184432   1.39955 126 109 115
-0.0531339  -0.178928    1.41941 134 125 130
-0.0510573   -0.17482    1.42562 118 109 104
-0.357244 -0.151989   1.46538 197 193 184
 0.39293 0.013973  1.50148 68 74 60
0.0104074 -0.142853    1.4562 189 178 176
-0.219994 -0.119766   1.67485 27 39 63
-0.360761 -0.129337   1.49579 108 105 100
-0.56641   -0.115  1.52496 62 54 51
-0.0691235  -0.123389    1.49052 132 117 114
 -0.20925 -0.116673   1.50403 140 133 127
-0.566045 -0.110806   1.53088 70 65 61
-0.406038 -0.111069   1.52016 196 186 174
  0.368774 -0.0135017    1.61379  95  98 107
 -0.164793 -0.0817668    1.72453 150 173 205
-0.43803 0.014148  1.68313 181 174 166
 -0.477052 -0.0830931    1.55996 178 163 166
  0.286122 -0.0730157    1.70424 134 158 184
-0.181617 -0.104541   1.58831 126 122 123
   -0.392667 -0.000449607      1.72542 147 142 139
-0.473143 0.0441258    1.7133 103  84  88
 0.405239 0.0898467   1.60453 35 42 24
 -0.684298 -0.0574826    1.63821 51 56 50
 -0.470146 -0.0257533    1.63446 182 171 167
 0.241224 -0.123654   1.64024 151 170 177
 0.287009 -0.116837   1.64082  74  94 118
  0.112922 -0.0352253    1.76705 147 171 199
  0.255899 -0.0221501    1.76617 162 180 202
  0.256551 -0.0165261    1.77219 163 178 197
   0.33564 -0.0122596    1.76731  65  99 136
  0.326907 -0.0171209    1.77426  73  85 107
0.0847043 -0.010355   1.79757 42 53 81
-0.442154 0.0859872   1.77929 120 120 122
-0.349063 0.0577707   1.80943 80 71 64
-0.353902 0.0694154   1.81407 169 160 161
  0.245632 -0.0710021    1.70968  84  93 124
 0.0542804 -0.0642093    1.73036 195 216 237
-0.480859  0.119428   1.80761 155 162 170
  0.10391 0.0157248    1.8335  92 109 137
-0.383821  0.017742   1.75762 96 83 77
 0.0573369 -0.0331489    1.76967 181 203 217
  0.157138 -0.0342035    1.76309 128 151 169
 0.0963435 -0.0312283    1.77224 127 145 165
  0.23361 0.0341922   1.84441 130 164 192
-0.497708 0.0827017   1.75218 195 188 195
  0.324817 -0.0298323    1.75501 58 74 97
0.406433 0.183807  1.72265 32 32 44
-0.01811 0.112521  1.86519 126 124 135
-0.348559 0.0632799    1.8137 183 173 174
-0.353452  0.160982   1.87496 189 187 188
-0.339627  0.161536   1.87664 141 140 138
  0.128546 0.00775004    1.81595  50  70 107
   0.26106 0.00849975    1.80355 157 173 186
 0.372698 0.0815658   1.72991 168 158 148
-0.350654  0.176205   1.89407 198 202 205
-0.179233  0.173086   1.89048 199 190 191
-0.315679 0.0856507   1.83952 177 167 166
-0.320214 0.0911206   1.84142 184 174 175
0.396071 0.182542  1.82394  91  89 103
-0.52408 0.127716  1.84361 121 115 115
-0.00374122    0.177676     1.88737 189 185 176
0.146947 0.174727  1.87365 193 181 185
0.00225029   0.185027    1.88878 62 58 73
-0.568964  0.254634   1.93954 50 48 49
-0.10864 0.115429  1.87222 83 82 87
0.0906448  0.206099   1.90974 197 190 197
-0.484151  0.171115   1.86875 171 171 171
0.0548764  0.223227   1.93764 78 74 89
-0.310879  0.237996   1.97284 129 114 119
0.134247 0.231869   1.9375 118 108 109
-0.179342  0.242857   1.97185 67 61 61
-0.353339  0.170535   1.88849 190 185 191
-0.444229  0.263156    1.9954 159 149 140
-0.251294  0.164519   1.88152 94 85 76
0.005217 0.168842  1.87467 211 197 197
-0.095031   0.26748   2.00123 58 56 61
-0.218013  0.278554   2.02147 87 82 89
-0.226643  0.283215   2.03078 103  94  97
-0.0121397    0.17767    1.88817 183 183 181
-0.146928  0.182353   1.90126 178 167 165
-0.250802   0.19023   1.90993 71 70 66
-0.145607  0.196868   1.90864 165 161 158
-0.110608  0.197861   1.90534 108 100 115
-0.13052 0.299713  2.04296 119 116 125
0.0757429  0.202794   1.90887 188 183 189
-0.390253  0.237292   1.97406 179 171 169
-0.350218  0.237264    1.9746 104  95  98
-0.395215  0.240675   1.98208 66 67 62
-0.268598  0.241307   1.97217 187 183 182
0.0110974  0.246303   1.96358 90 83 90
-0.347096  0.259699   2.00456 147 136 142
-0.225373  0.279101   2.02378 169 165 154
-0.437641  0.305484   2.04878 155 139 140
-0.0455467   0.291566    2.03545 175 166 169
-0.373077  -0.13839   1.30235  91  87 101
-0.490201 -0.134439   1.31542 137 138 140
-0.302336 -0.139261   1.29923 195 175 177
-0.622016 -0.145541   1.42512 140 138 141
-0.613763 -0.149694   1.42792 65 69 55
0.0329841 -0.188996   1.39894 179 176 171
 0.141845 -0.191464   1.39269 121 115 119
-0.662032 -0.153569    1.4769 149 144 151
 -0.621795 -0.0944566    1.32141 52 50 53
 -0.28786 -0.159088   1.45202 111 101 100
 -0.16366 -0.153022   1.45547 74 71 82
-0.192061  -0.13605    1.4791 105  88  96
-0.451631 -0.190389   1.41914 114 107 101
-0.116904 -0.193652   1.40013 176 175 155
-0.319424 -0.182566    1.4247 103  93  91
 -0.59479 -0.126761    1.4732 75 80 99
 -0.558844 -0.0678806    1.58497 64 65 60
 -0.12637 -0.105607   1.58459 69 48 57
 0.145072 -0.130942   1.64209 137 163 186
-0.434581 -0.027824   1.63098 196 187 190
 -0.255148 -0.0865126    1.72458 119 130 160
 0.143077 -0.090679   1.68946 32 43 73
  0.184009 -0.0909613    1.68953 144 169 199
0.150815 -0.08961  1.69435 132 161 195
 0.0442629 -0.0831481    1.71049 103 122 154
   0.24197 -0.0771077    1.70156  69  86 104
 0.0861248 -0.0702275    1.72242 169 186 212
 -0.101345 -0.0678042    1.74096 112 134 158
 0.0788017 -0.0663524    1.72755 11 33 72
  -0.375109 -0.00109844     1.73329 164 147 139
 -0.247313 -0.0305471    1.78709 125 150 180
  0.151206 -0.0343827    1.75918 60 60 86
-0.0657449 -0.0314626    1.77964 29 36 55
 0.0816963 -0.0336316    1.76554 27 38 66
 -0.134195 -0.0307129    1.78719 42 54 70
 -0.126318 -0.0281879    1.79154 152 176 204
 0.0891349 -0.0320358    1.77113 155 173 197
  0.248493 -0.0293187    1.76039  89 107 131
  0.290164 0.00725465    1.80083 28 33 52
  0.118485 0.00907971    1.82394 149 170 199
0.0967901 0.0122935   1.82817 163 182 214
 0.388137 0.0947561   1.75004 138 143 136
 0.160977 0.0302173   1.84803 34 44 53
0.404864 0.178697   1.7139 22 17 39
-0.0913625   0.115961    1.86979 66 67 59
-0.330196  0.172957   1.88657 183 181 182
-0.357743  0.174995   1.89379 92 85 75
-0.201352  0.197106   1.91188 110 111 113
-0.125638  0.202108   1.90826 71 67 90
0.11149 0.20016 1.89769 169 164 168
-0.514136  0.224592     1.963 49 54 48
 0.40396 0.243525  1.89394 78 80 79
-0.559869  0.280411   1.97775 92 91 89
0.245124 0.230535  1.93133 188 178 179
-0.553701  0.316235   2.02601 100  89  85
-0.589312 -0.133051   1.46288 154 147 139
-0.109333 -0.163252   1.44068 192 181 177
 0.298119 -0.152953   1.41672 201 188 180
 0.107885 -0.169665    1.4204 120 115 109
-0.190764 -0.110291   1.51758 119 105  96
 0.202014 -0.114868    1.4851 117 101 101
-0.131785 -0.105705   1.51678 48 51 44
 0.108207 -0.138549   1.45844 123 109 109
 -0.349999 -0.0854325    1.55244 106 107 102
-0.179925 -0.108808   1.50589 202 201 183
-0.307321 -0.089702   1.54351 198 184 183
 0.262327 -0.127648   1.62767 128 143 174
  0.240593 -0.0874735    1.69169  99 115 148
 -0.159059 -0.0606279     1.7497 149 176 206
-0.570925 0.0179385   1.66839 153 137 137
  0.360207 -0.0479954    1.72022 27 26 31
 -0.56678 0.0313052   1.67785 150 140 131
-0.354221  0.125858   1.83436 167 161 165
-0.319039 0.0723877   1.82714 174 178 164
-0.321676  0.171497   1.88864 116 114 115
-0.118708  0.180707   1.88886 112 101 107
-0.251638  0.182278   1.89663 182 173 178
-0.259223  0.195279   1.90718 182 171 177
-0.129863  0.199993   1.89904 194 193 188
0.0530887  0.202384   1.90642 101  99 102
0.134095 0.232491  1.93942 119 108 114
0.393711 0.238684  1.89251 170 171 166
  0.0526 0.253621  1.97318 109 102 110
 0.335982 -0.120634   1.42659 156 158 155
 0.109102 -0.120206   1.48175 192 177 170
 -0.572089 0.00709685    1.64634 149 137 137
-0.481034 0.0545247   1.72307 186 177 182
 -0.4578 0.194909  1.90731 173 162 168
0.263337 0.189976  1.87561 183 171 171
-0.453248  0.247927   1.98329 157 155 156
-0.123834 -0.184538   1.41291 134 119 116
 0.308667 -0.144609   1.43113 59 61 47
-0.142483 -0.147098   1.45549 192 183 178
-0.571903 -0.101072   1.53188 82 64 60
-0.505609  0.131889   1.84374 141 131 132
-0.571118  0.162305   1.83062 52 54 43
-0.379161 0.0842227    1.8123 81 78 71
 0.137589 0.0172267   1.82607 138 167 201
-0.559741  0.237776   1.92554 54 50 47
-0.461565   0.17861   1.88731 178 179 173
-0.234357  0.200921   1.91879 196 191 195
0.0998363  0.224524   1.94457 127 123 120
0.232419 0.268606  1.98482 156 148 146
-0.454734  -0.04607    1.6095 196 185 189
0.0285315  0.192853   1.89477 181 175 175
   0.36441 -0.0565904    1.56541 142 132 130
  -0.1382 -0.114769   1.61652 96 92 89
 0.144202 -0.143387   1.61755 44 47 62
 0.238508 -0.141072   1.61376  58  73 104
-0.108218  -0.12892   1.65753 41 54 89
-0.530885 -0.189279   1.39778 95 92 77
  0.26651 -0.122549   1.63427  94 118 156
-0.281146 -0.197464    1.4025 96 91 85
-0.504308 -0.181141   1.41761 54 57 36
 0.239465 -0.121138   1.64759  67  89 103
 0.112142 -0.195341   1.38953 205 194 192
-0.121495 -0.192349    1.4039 121 108  99
 0.254984 -0.112744   1.64744 137 152 175
  0.360761 -0.0210457    1.60069 161 157 146
-0.358907  -0.18467   1.42174 132 122 131
-0.120818 -0.189136   1.40979 114 103 107
 0.256486 -0.106968     1.655 130 147 167
 0.120309 -0.102058    1.6723 139 155 181
 0.404644 0.0704062   1.57362 129 133 108
0.0338087 -0.166862   1.43169 107  99  97
 -0.35827 -0.157999   1.45866 194 183 189
  0.245901 -0.0926901    1.67913 172 178 194
-0.452892  0.014308   1.68907 173 171 172
   0.36544 0.00443247    1.63656 171 164 145
 -0.100531 -0.0821374    1.71817  98 120 157
0.0608894 -0.139511    1.4585 201 186 179
-0.0495231  -0.136991    1.47135 173 152 151
-0.525568 -0.115677    1.4946 174 175 161
-0.358152 -0.131325   1.49136 111  95  96
-0.525713  -0.11375   1.49822 169 167 154
-0.248098 -0.125043   1.49706 214 195 199
 0.298575 -0.119581   1.47352 85 78 70
-0.437144 -0.109453   1.52574 186 185 183
-0.244698  -0.10829   1.51784 205 197 194
-0.137047 -0.102601   1.51054 176 170 156
-0.175767 -0.101596   1.51662 77 76 55
 -0.151592 -0.0489467    1.76025 64 56 93
 -0.141496 -0.0991045    1.52365 138 129 134
-0.392337 0.0191317   1.75487 56 54 55
  0.273226 -0.0396466    1.73791  89  98 139
  0.362462 -0.0405144    1.73073 107 120 110
-0.0802126 -0.0378057    1.77007 49 55 69
  0.361934 -0.0367762    1.73523 108 105  96
 0.373297 0.0480514   1.69477 70 70 68
-0.383993 0.0327211   1.77205 77 77 53
 0.371485 0.0579447   1.69922 159 149 140
   0.25141 -0.0289736     1.7612  76  92 128
 -0.562798 -0.0903784    1.55666 72 63 58
  0.110944 -0.0302729    1.77241 147 168 197
 -0.461672 -0.0861401    1.55538 100  94 108
  0.316794 -0.0207176    1.76421 119 134 163
  -0.56128 -0.0802015     1.5684 88 72 73
  0.365099 -0.0146189    1.76509 116 117 109
-0.364656 0.0538515   1.79868 83 75 72
   0.106738 -0.00857153     1.79874 137 171 199
-0.162202 -0.104259   1.57184 68 58 59
0.00602122  -0.112447    1.56388 127 108 128
-0.124217 -0.110435    1.5741 129 119 120
 -0.390021 -0.0657062     1.5791 196 184 196
 -0.480032 -0.0534651    1.59378 158 148 139
-0.472806  0.119219   1.80752 183 182 180
 -0.488342 -0.0400289    1.60017 185 172 153
  0.27996 0.0142085   1.80992  60  77 107
-0.152919 -0.112845   1.61777 105  95 104
 -0.422779 -0.0336415    1.62403 130 113 119
-0.401982  0.123695   1.82821 194 189 195
 0.374208 0.0268558    1.8194 41 48 58
 0.260066 0.0280804   1.83472  70  96 119
0.0991449 0.0324043   1.85576  85 103 143
-0.407326   0.13585   1.84374 193 188 194
 0.294353 0.0344588   1.83867 125 133 136
 0.373409 0.0383249   1.83581 121 123 118
-0.411655  0.140941    1.8485 177 169 184
0.0459951 -0.107948   1.67543 190 208 228
  0.139041 -0.0851232    1.69454 144 168 194
  -0.17095 -0.0816718    1.72446 120 146 173
-0.0170195 -0.0728835    1.72536 121 127 159
-0.125136  0.118897   1.87112 78 76 87
-0.107979  0.116052   1.87218 79 77 78
-0.405464  0.161477   1.87528 140 134 138
-0.34495 0.157315  1.87256 193 187 191
-0.191641  0.120189   1.88095 94 85 86
-0.0724383   0.116651    1.87236 185 177 174
-0.111787  0.131666   1.87927 176 170 172
-0.114821  0.131998   1.87964 119 113 115
-0.12353 0.135683   1.8791 109  96 114
 0.372318 0.0385585   1.68013 73 69 68
-0.126152  0.136282    1.8794 205 193 197
-0.31427 0.167884   1.8858 200 196 197
-0.451473  0.182373   1.89314 96 83 66
-0.258852  0.178388   1.89071 171 167 158
  0.212744 -0.0314541    1.75957  88 118 146
-0.0933617   0.178131    1.88449 163 151 151
  0.156973 -0.0273415      1.773 142 163 180
-0.122099  0.180663   1.88855 62 55 63
-0.233761  0.193128   1.90867 141 130 138
-0.348267  0.054814   1.80673 151 139 141
-0.126909  0.202103   1.90489 55 58 73
   -0.129922 -0.000120567      1.82191 143 163 188
-0.180248  0.204944   1.91993 191 179 181
-0.352993  0.208094   1.93845 110 109 115
-0.402674  0.107583   1.80448 155 159 132
-0.464898  0.118531    1.8064 108 112 111
-0.0612676   0.202214    1.91046 180 174 174
-0.380235   0.10299   1.80871 176 163 147
-0.245005  0.209201   1.93051 115 117 114
-0.0697931   0.203665    1.91343 176 170 174
  0.127975 0.00698007    1.81979 34 49 82
-0.0666045   0.206653    1.91711 180 179 161
0.253918  0.20451  1.89648 78 64 89
-0.177764  0.224554   1.94639 191 180 178
0.159612 0.216137  1.92449 107  96 113
-0.0843572  0.0374332    1.87202  64  80 113
0.0606328  0.237517   1.95309 113 112 120
0.10767  0.2391 1.95474 115 106 107
0.257688 0.238071   1.9409 136 140 139
-0.0497805   0.246887    1.96952 138 124 137
-0.12703 0.111073  1.86437 124 122 123
0.180202 0.243927  1.95345 110 101 130
 -0.2525 0.258999  1.99835 174 173 169
0.184164 0.246186  1.95738 180 172 161
-0.254007  0.265189   2.00528 182 170 172
-0.06748 0.119293  1.87345 200 187 194
0.00288249   0.126061    1.87232 187 183 180
-0.0841269   0.267535    2.00014 163 160 141
-0.331695  0.168276   1.88294 129 124 121
-0.213852  0.274302   2.01885 166 156 164
 0.39456 0.155391  1.81801 78 82 85
-0.343851  0.282525   2.03225 108  98 107
-0.40031  0.17436  1.89439 190 184 198
0.113374 0.271723  1.99174 156 151 157
-0.224666  0.283623   2.03247 83 79 76
-0.25599 0.183797    1.898 183 175 186
-0.437173  0.206809   1.93618 76 57 76
-0.179248  0.199311    1.9141 100  92 116
-0.266542  0.203911   1.92407 109  99 107
0.134153 0.194603  1.89025 82 77 97
0.254135 0.203469  1.89393 174 165 148
0.0144098  0.236268   1.94987 110 111 116
-0.0967535   0.260009    1.99081 71 69 83
0.109973 0.255815  1.97517 102  93  98
-0.0508089   0.264031    2.00579 195 189 189
 -0.20344 -0.210611    1.3817 103  89  88
 0.191043 -0.209019    1.3697 73 57 60
-0.171939 -0.200994   1.39837 155 147 136
-0.261223 -0.197851   1.40468 67 65 66
-0.610441 -0.158756   1.42361 91 92 84
-0.358985  -0.18892   1.41688 137 126 130
-0.605423  -0.15059   1.43349 73 73 65
-0.604732 -0.142218   1.44701 28 33 27
-0.607171 -0.138763     1.448 113  99  96
-0.364757 -0.170105   1.44286 124 114 104
-0.534117 -0.187769   1.39942 116 113 106
-0.603582 -0.137003   1.45289 43 31 33
 0.350574 -0.143037   1.40424 137 126 124
-0.595927 -0.129817   1.46439 75 71 59
0.0871608 -0.193357   1.39307 171 162 155
-0.502304 -0.180283   1.42266 151 143 141
-0.0429337  -0.183933    1.40556 129 124 120
0.0833076 -0.155181    1.4365 134 120 120
-0.264084 -0.182994   1.42042 97 82 89
-0.362006 -0.175901   1.43926 204 185 189
-0.314294 -0.145433   1.47518 122 119 114
-0.601292 -0.139626   1.45249 117  97  98
-0.115974 -0.162261   1.44382 92 84 95
-0.0569635  -0.155583    1.44411 87 64 80
-0.591968  -0.12695   1.47359 74 66 81
-0.493416 -0.118865   1.50143 136 131 128
-0.186386 -0.124538   1.49335 205 190 193
-0.316278 -0.141917   1.47382 193 185 183
-0.442701  -0.12032   1.51092 129 131 126
-0.0828394  -0.139242    1.46779 126 105 112
-0.154298 -0.139051   1.47485 175 167 165
-0.0426386  -0.138923    1.46875 197 190 182
-0.248037  -0.10978   1.51665 114 106 103
-0.141175 -0.104158   1.51099 51 56 59
-0.245649 -0.116335   1.50727 210 198 202
 0.200969 -0.116069    1.4801 172 159 151
-0.292088 -0.103344   1.52667 91 84 92
-0.241523 -0.102201     1.524 205 195 196
-0.401065 -0.111817   1.52143 87 83 80
-0.405436 -0.109204   1.52366 131 116 121
-0.140704 -0.104833   1.50678 77 76 81
 -0.598018 -0.0686776    1.53966 166 162 161
-0.137373 -0.104393   1.50671 178 175 170
-0.264107 -0.109109   1.51664 120 111 116
-0.487044 -0.095024   1.53472 105  94  90
   -0.4666 -0.0862375     1.5556 102  93  96
-0.174423  -0.10569   1.55768 81 75 89
  -0.39479 -0.0786984    1.56308 105  89  99
 -0.135639 -0.0962745    1.52919 174 159 166
 -0.347606 -0.0908575    1.54588 184 179 183
   0.382097 -0.00660921     1.48032  97 101  78
-0.170648  -0.10152   1.55416 198 194 185
 -0.345518 -0.0783832    1.56028 122 120 123
-0.227154 -0.101821   1.59461 101  80  87
-0.181448 -0.109777   1.57253 129 118 122
-0.132828 -0.105119    1.5694 187 185 173
 -0.432369 -0.0627466    1.58074 146 135 139
 -0.394285 -0.0511363    1.59948 215 202 219
  0.372581 -0.0872531    1.53566 190 178 162
 0.398657 0.0294582   1.51928 103 116  72
 -0.151863 -0.0958647     1.5933 143 124 118
 -0.326534 -0.0667144    1.64158 179 169 168
 -0.167859 -0.0992037     1.6056 44 43 41
 -0.349137 -0.0537451    1.65409 157 145 129
0.0449854 -0.115093   1.66291 176 193 209
 0.313014 -0.112372   1.64679  66  88 111
 0.07789 -0.11086  1.67053 145 171 196
   0.36486 -0.0168895    1.61019 166 160 148
 -0.55372 0.0121612   1.68194 31 30 28
 -0.202901 -0.0947709    1.70405 50 55 87
  0.317724 -0.0943887    1.66815 62 64 77
  0.316973 -0.0873822     1.6797  78  88 123
 0.319775 -0.068892   1.70379  78  87 120
-0.0837049 -0.0514462    1.75385 65 66 96
-0.398663 0.0176099   1.75044 97 88 79
 -0.147735 -0.0352698    1.77813 58 65 93
 0.0533302 -0.0337856    1.77434 105 127 176
-0.380844 0.0389535   1.77877 69 64 61
 0.374436 0.0577493   1.70154 71 70 68
-0.412767 0.0735227   1.77117 91 87 78
-0.0770537 -0.0208271     1.7919  87  83 110
-0.0238418 0.00917879    1.82559 127 152 182
 0.40865 0.161478  1.69556 25 29 30
-0.462358  0.121223   1.80828 163 153 154
 0.0638068 0.00979362    1.82642 170 190 214
-0.0702608  0.0158925    1.83757  63  72 101
-0.453433  0.123947   1.82038 74 70 61
-0.326332  0.087721   1.83664 165 163 166
-0.455318  0.131576   1.82641 129 120 123
-0.0816308  0.0360336    1.86989 163 180 206
0.00547882  0.0386973    1.86581 145 170 200
-0.28418 0.100512  1.85772 176 167 168
-0.280279  0.100293   1.85828 104  95  96
-0.428733  0.144189   1.85528 107  97 106
-0.11986 0.116119  1.86969 171 165 165
-0.129036   0.12014   1.87264 176 170 170
-0.064784  0.113972   1.87039 136 126 134
0.129722 0.112498  1.85379 196 188 185
0.175426 0.115216  1.85154 137 126 140
-0.45141 0.185372  1.89587 102  89  96
0.400011 0.175417  1.81818 166 159 151
-0.359045  0.180922   1.89925 181 172 173
-0.398826  0.187234   1.91058 173 171 176
-0.19207 0.175176  1.89835 117 103 116
0.400426 0.191268    1.823 187 183 172
0.00587773   0.172778    1.87895 174 168 172
-0.113874  0.178455   1.88963 52 49 68
-0.442293  0.200743   1.92208 60 60 52
-0.106335  0.189702   1.89208 195 187 184
-0.126259  0.198465   1.89755 207 214 181
0.00607136   0.188307    1.89185 195 186 181
0.398645  0.20769  1.83894 56 55 97
-0.088054  0.199861   1.90848 137 136 132
-0.122761  0.202208   1.91308 157 140 133
0.100231 0.204416  1.90796 169 160 161
0.235519 0.205098  1.89667 178 163 156
0.257727 0.213006  1.91225 102 103 107
-0.301297  0.237715   1.97191 113 106 113
-0.352251  0.239707   1.97686 180 171 176
-0.43203 0.245038  1.98715 75 74 69
0.0938417  0.230234   1.93949 102  92 100
0.264535 0.228543  1.92706 131 129 132
-0.178778  0.244505   1.97719 67 61 63
-0.134909  0.244391   1.97273 176 173 180
-0.252317   0.25587   1.99347 116 113 124
0.175611 0.245838  1.95859 169 164 142
-0.141419  0.256818    1.9893 173 173 165
-0.132142  0.259242   1.99111 207 193 184
-0.427874  0.272601   2.02277 75 69 73
0.166395 0.249739  1.96589 176 170 172
0.160469 0.252277   1.9684 170 161 166
-0.427486  0.276241   2.02689 53 49 46
-0.0560341   0.266438    1.99773 155 153 140
0.0607225  0.267854   1.99248 109  96 113
0.264442 0.263545  1.97619 114 111 122
0.111108 0.268468  1.99239 121 115 117
-0.23132 0.283794  2.02717 159 161 160
-0.218804  0.285744   2.03326 170 165 143
0.0102597 -0.150979    1.4465 188 181 175
0.0203147 -0.150256   1.44648 181 168 159
0.0604296 -0.135156   1.46548 205 191 190
-0.107976 -0.127322   1.48827 199 190 183
-0.522385 -0.108224   1.50899 91 85 85
  0.353496 -0.0975069    1.46279 95 94 89
 0.380523 -0.036574   1.44421 114 110  83
-0.507933 -0.193853   1.40274 75 65 55
-0.265036 -0.196174    1.4043 175 162 154
 -0.168517 -0.0989229    1.55746 187 184 177
 0.146255 -0.198634    1.3828 190 172 170
 -0.60088 -0.152917   1.44073 56 56 64
-0.572557 -0.169789   1.45003 56 56 48
-0.571225 -0.155914   1.47051 57 53 52
-0.198968  -0.15277   1.45425 197 180 172
-0.357132 -0.151598   1.46544 197 193 184
-0.114936 -0.149527   1.45815 115 106 111
-0.359688  -0.14465   1.47456 108 109 103
-0.569463   -0.1343   1.50132 62 45 55
-0.593072 -0.101086   1.50681 104  99  80
 -0.465536 -0.0277033    1.63143 132 119 126
 0.379984 -0.041277   1.43857 122 122  98
  -0.548898 -0.00438251     1.66365 36 35 40
 0.140395 -0.110078   1.66521 57 58 89
0.117648 -0.10633  1.66813 150 162 184
-0.301284 -0.100729    1.5366 198 193 190
 -0.441617 -0.0892187    1.55064 190 181 182
-0.184548 -0.105911   1.54325 78 68 56
  0.113182 -0.0931539    1.68505 120 150 178
 -0.338403 -0.0733395    1.56861 70 61 56
 -0.102355 -0.0885551    1.70624 127 146 186
  -0.48791 -0.0457446    1.59346 87 95 72
 -0.396653 -0.0496687    1.60256 187 186 184
 0.384939 0.0349739   1.67388 107 110 103
-0.0864345 -0.0370802    1.77048 138 166 190
 -0.552278 -0.0211289    1.64539 20 26 22
 -0.248253 -0.0279856     1.7949 43 54 76
  0.166311 -0.0347269    1.76219 155 169 182
 -0.338777 -0.0571497    1.65993 105  93  81
 0.0477418 -0.0338453    1.77377 149 175 200
 -0.168373 -0.0285694    1.79422 138 157 197
-0.0761708  -0.101108    1.68579 47 56 95
  -0.55207 0.00746264    1.67891 94 80 77
-0.0707715 -0.0214364    1.79124 161 182 211
 -0.198048 -0.0942966    1.70511 143 164 181
 -0.44201 0.0861715   1.77916 120 120 122
 -0.105967 -0.0843445    1.71812 137 155 191
 -0.0683188 -0.00492303     1.81149 138 170 193
  0.245629 -0.0709987    1.70968  84  93 124
-0.355952  0.063863   1.81083 86 79 73
 -0.161736 -0.0392979    1.76726 136 165 195
-0.40084 0.112729  1.80891 177 177 169
  0.131852 0.00952179    1.82066 173 190 210
 0.335083 -0.038572   1.73291  70  75 104
  0.250498 0.00787754     1.8107 126 143 169
-0.376353 0.0305554   1.77164 92 90 91
0.0545092  0.012056   1.82973 134 159 190
-0.0934085 -0.0332075    1.78057  50  70 107
 -0.237895 -0.0303394    1.79343  51  77 112
0.0657535 0.0239191   1.84382 177 199 212
0.0727413 0.0325139   1.85016 104 136 175
 0.293581 0.0310434   1.83448 23 39 55
-0.344098  0.125038    1.8387 77 62 57
  0.300935 -0.0109083    1.77917 119 139 172
-0.332346 0.0353397   1.81413 33 33 21
   0.187214 -0.00902313     1.79062 137 163 190
-0.361601  0.139938   1.84396 190 179 183
-0.360068 0.0645866   1.80783 162 160 148
 0.379717 0.0837811   1.73811 63 51 63
 0.375145 0.0893519   1.73912 155 146 137
  0.331721 0.00462094    1.79531 51 64 81
 0.0359043 0.00855521    1.82299  82  95 130
   0.06036 0.00836559    1.82351 70 70 96
-0.152036 0.0176992   1.84498 158 188 212
  0.108942 0.00961534    1.82404 129 163 191
-0.0849806   0.119211    1.87413 177 173 170
-0.134636  0.136378   1.87953 94 90 89
 -0.32279 0.0871703   1.83909 90 85 81
-0.256622  0.163813   1.87971 171 156 161
 0.154952 0.0246147   1.83576  99 140 170
0.0630927 0.0310287   1.85741  93 113 150
 0.164795 0.0349136   1.85158 144 161 187
-0.121565  0.176654   1.88103 145 134 140
0.343349 0.166669  1.85299 80 84 85
-0.0622965   0.181007     1.8914 190 184 184
0.412632 0.198909  1.74177 92 93 75
-0.363473  0.146425   1.85735 191 189 192
-0.122734  0.196848   1.89645 84 82 85
0.420805 0.204227  1.74987 55 55 55
-0.13306 0.199491  1.90976 194 191 184
-0.116564  0.116692   1.87196 78 79 81
0.076875 0.200885  1.90251 126 126 114
-0.105715  0.207951   1.91909 140 136 137
0.121946 0.112677   1.8546 199 194 188
0.0202976  0.202888   1.90958  90  73 107
-0.0667519   0.117882    1.87215 181 176 180
-0.310825  0.237753   1.97299 129 114 119
-0.11107 0.139129  1.88409 173 163 171
-0.408201  0.180725   1.89989 180 178 163
-0.446622  0.187954   1.90217 116 112 111
0.0110192   0.24557   1.96412 90 83 90
-0.255264  0.260211   1.99971 168 167 165
-0.060644  0.257502   1.98021 170 170 180
0.00969419   0.173315    1.88295 108 104 105
-0.260407  0.264183   2.00463 96 87 82
-0.0697018   0.179865    1.89252 192 178 177
0.00618188   0.183336    1.88569 214 204 203
 0.26433 0.265127  1.98295 120 104 105
-0.0961927   0.200117    1.90922 147 135 145
0.151064  0.19411  1.88962 68 68 78
-0.219887  0.211108   1.93163 187 179 176
-0.399715  0.217053   1.95026 133 117 128
-0.315259  0.217231   1.94639 127 117 128
-0.39873 0.243455  1.98089 176 173 166
-0.263273  0.241379    1.9746 95 86 81
-0.0608546   0.253242    1.97745  95 106 124
-0.0549175   0.263466    1.99498 64 66 81
-0.0998065   0.269242    2.00174 157 144 138
0.268236 0.268199  1.98322 174 168 170
-0.0585409  -0.208532    1.38015 117 106 102
-0.0504269  -0.204586     1.3784 167 149 135
 0.092546 -0.201125   1.37417 164 150 149
-0.196244 -0.200552   1.39821 177 170 164
  0.382675 -0.0304046    1.45233 96 98 85
 0.397171 0.0567025   1.43236 110 120  96
-0.122965 -0.197025   1.39583 116 109 101
-0.187342 -0.103477   1.53486 93 80 64
-0.235956 -0.099641   1.53899 189 180 175
-0.198879 -0.196774   1.40355 105  98 106
-0.177072  -0.19155   1.40435 176 166 167
-0.451673 -0.190342   1.41913 114 107 101
 0.287537 -0.193617   1.38101 119 104 101
-0.118836 -0.187734   1.41264 93 83 84
0.0210787 -0.180198   1.40547 120 104 104
-0.115901 -0.166843    1.4374 116 106 115
-0.121649 -0.111264   1.57099 165 146 150
-0.491384  -0.03927   1.59896 194 187 181
-0.184081 -0.111057    1.6143 146 129 121
0.0376604 -0.126772   1.65519  94 114 141
 0.235585 -0.126612   1.64284 60 77 97
-0.199839 -0.101208   1.69356 132 158 185
   0.27668 -0.0923082    1.67529 18 33 54
 -0.141863 -0.0840382    1.71732 34 52 62
-0.0247165 -0.0851514    1.71165 137 157 184
-0.473136 0.0440549   1.71333 103  84  88
 0.0788854 -0.0642179    1.72721 34 51 77
-0.0691126 -0.0621873    1.74407 33 43 68
0.394599 0.103171  1.62171 60 68 91
  0.125157 -0.0404334    1.75136 134 160 187
  0.180317 -0.0380249    1.75416 55 52 73
  0.178399 -0.0350587     1.7608 148 169 198
-0.365051 0.0296085   1.78435 164 153 149
 0.0509327 -0.0319313    1.78171 110 133 164
  0.254614 0.00509512    1.80374 47 61 72
  0.115921 0.00605798    1.81739 45 64 94
-0.0898518   0.012846    1.83694 60 71 91
-0.182163 0.0171762   1.84794 160 171 203
    0.1769 0.00803547    1.81902 130 151 180
 0.106643 0.0311374   1.85113 101 108 124
0.376954 0.115433  1.77417 158 147 141
-0.403484  0.178829   1.90065 97 95 96
-0.266679  0.181863   1.89746 185 176 179
0.346557 0.177079  1.85084 174 175 161
-0.141119  0.187905   1.90445 86 81 85
-0.201547  0.196585   1.91214 110 111 113
-0.242365  0.205184   1.92613 188 189 184
0.0584168  0.204506   1.91394 182 177 173
0.0551369  0.228306   1.94446 83 86 95
-0.0918273   0.260905    1.99395 157 161 160
-0.292583  0.279875   2.02632 112 112 114
-0.0432648  -0.108635     1.5062 128 108 109
-0.269547 -0.191202   1.41012 182 167 170
 0.293666 -0.188788   1.37467 183 175 162
-0.368794 -0.185182   1.42354 136 126 127
-0.594155 -0.159501   1.43295 112 114 101
 0.133524 -0.121537   1.53379 169 146 138
 -0.299135 -0.0831204    1.56113 199 185 182
-0.343814 -0.063597   1.58849 172 168 165
-0.192889 -0.118804   1.50071 135 123 109
-0.199932  -0.11069   1.51086 198 189 184
 -0.25334 -0.102106    1.5227 205 200 194
 0.214354 -0.112904   1.49437 180 152 151
  0.343417 -0.0937028    1.49458 160 156 157
 -0.337106 -0.0525042    1.66752 168 157 151
    -0.54757 -0.000707828      1.67272 70 59 63
 -0.332951 -0.0703542    1.57995 196 186 177
-0.0637031 -0.0833546    1.71749 167 184 214
 -0.133214 -0.0802752    1.72351 169 180 212
  0.231775 -0.0903929     1.6867 139 154 187
 -0.371676 0.00836411    1.75287 44 42 43
   0.28172 -0.0394969    1.73465 114 130 156
-0.411307 0.0751184   1.77966 170 166 163
  0.284361 -0.0335534    1.74479 57 61 90
  0.292967 -0.0301652      1.752 144 160 185
-0.106307 -0.029084   1.78976 141 172 200
-0.0570745 -0.0298003    1.78588 158 184 211
 -0.165591 -0.0223195    1.80389  97 111 148
0.392762 0.117157  1.77924 146 147 142
-0.347662 0.0519015    1.7994 170 168 156
 0.0354496 0.00840322    1.82529  77  86 115
  0.298259 0.00981323    1.80687 113 121 157
-0.0505082  0.0147059    1.84147 160 179 212
-0.080584  0.122791   1.87706 182 170 172
-0.266416  0.181445   1.89373 180 171 172
-0.432591  0.189398   1.91365 167 155 159
-0.158945  0.179131   1.89569 125 109 112
0.251296 0.167891  1.85934 111 100 106
-0.261156  0.185798   1.90152 89 85 73
-0.20913 0.201923  1.91924 192 183 184
-0.14348 0.179304  1.89454 108  96  96
-0.00998467    0.174419     1.88272 120 108 112
0.351568 0.202439  1.87334 201 196 193
0.0749862  0.171443   1.87576 106  98 111
0.112004  0.21214  1.91588 175 177 174
-0.20689 0.192485   1.9014 185 180 176
-0.0987428   0.197923    1.90439 72 71 76
0.0533816  0.217087   1.92764 98 98 96
-0.0925184   0.202702    1.91127 158 149 154
0.0854462  0.235612   1.94948 114 115 109
0.358235 0.240464  1.92433 173 171 172
 0.13784 0.251631  1.96525 122 113 116
-0.141535  0.263935    1.9956 178 179 184
0.192452  0.26711  1.98271 194 183 187
-0.201402 -0.168457   1.43396 160 146 146
-0.120864  -0.16827   1.43408 130 117 111
-0.0496681  -0.134319    1.46711 168 154 153
-0.491458 -0.120723   1.50548 88 72 72
-0.123428 -0.112997   1.50364 206 186 177
-0.474482 -0.102849   1.53373 186 177 180
-0.466632 -0.037183   1.62058 181 176 173
-0.0780172   0.181004    1.90021 165 161 162
-0.211107  0.202866   1.91898 190 189 187
0.133133 0.203492  1.89941 186 177 180
0.248174 0.257899  1.96556 103 103 111
-0.517701  -0.18958   1.40981 143 134 119
-0.553265  -0.14411   1.48691 170 152 148
0.057106 -0.12036  1.48334 209 185 183
 0.310775 -0.108294    1.4944 168 158 166
 0.292707 -0.120176   1.50175 82 65 55
 0.338425 -0.105191   1.51804 158 152 152
-0.0813648   -0.10887    1.53751 122 104 102
-0.483877 0.0354728   1.69819 187 178 181
-0.0896626 -0.0789518    1.72029 136 162 195
-0.0803956 -0.0226799    1.78241 144 163 196
 -0.149825 -0.0216575    1.79159 121 154 185
-0.24554 0.013852  1.85093 101 113 153
  -0.147326 -0.00835771      1.8103 126 159 194
-0.0744338  0.0249528    1.84786 130 150 187
0.380788  0.17784  1.82341 177 179 178
0.383094 0.210888  1.85172 155 156 160
-0.415679  0.231122   1.96221 172 167 173
0.226594 0.234007  1.93692 188 186 173
0.171551 0.234296  1.93985 174 168 170
0.0490202  0.241287   1.95515 108 106 109
0.207651 0.242505  1.94839 132 130 133
-0.472116 -0.169737    1.4449 183 171 173
-0.0275512  -0.122807    1.48675 208 187 186
 0.319467 -0.126891   1.58607 43 48 70
-0.335309 0.0708754    1.8252 177 167 165
 -0.324835 -0.0620148    1.63948 171 164 158
-0.262424  0.105432   1.86824 176 170 170
0.00067957  -0.107534    1.56558 190 169 166
-0.150239 -0.107226   1.53437 114 111 104
-0.206803 -0.194295   1.40218 76 65 61
-0.117755 -0.180683   1.42019 183 168 161
-0.143683 -0.112985   1.61732 106  99  83
-0.165383 -0.112528   1.62579 133 127 127
  0.40269 0.0675349   1.57414 33 46 39
 0.238427 -0.138512   1.62103 46 63 91
0.0417479 -0.134277   1.64071 56 70 96
-0.247099 -0.107421   1.68678  92  99 117
 -0.173169 -0.0992483     1.5232 138 139 134
  0.246634 -0.0852901    1.68815 154 169 188
  0.250202 -0.0813624    1.69107 138 155 173
-0.163825 -0.103234   1.54422 118 108 109
-0.0152217 -0.0797567    1.71651 101 117 151
0.382926 0.060478  1.70874 84 83 88
-0.0740447 -0.0353628    1.77264  99 125 160
  0.123621 -0.0372529    1.76024 38 48 84
-0.0927761 -0.0330195    1.78112  72  87 118
  0.305178 -0.0119933    1.77855 112 130 152
   0.274229 -0.00389529     1.78601 126 124 138
    0.262482 -0.000171725      1.79102 135 151 166
  0.193346 0.00510344    1.80443 135 155 192
-0.172919 0.0134552   1.84157  62  92 128
0.0568505 0.0082918   1.82283  67  86 129
 -0.15972 0.0146907   1.84113  86  98 136
0.00341673  0.0115978    1.83298 142 163 190
 0.0791448 -0.0631088    1.73135  55  69 118
 -0.1123 0.116686  1.86916 147 147 147
-0.0971826   0.116992    1.86765 192 187 193
0.0446208  0.122421   1.86618 121 118 125
-0.116396  0.141202   1.88515 58 60 72
-0.257812  0.182839   1.89557 122 124 121
-0.272968  0.185508   1.90103 126 119 137
-0.10744  0.17821   1.8874 59 61 76
-0.197563  0.186338    1.9017 217 208 213
-0.0974731   0.189672    1.89142  79  85 109
-0.12614 0.195892  1.89456 80 79 74
-0.0969467   0.191232    1.89476 92 94 93
-0.0407387   0.193904    1.89929  90  83 101
-0.138171   0.20422   1.92139 131 120 136
-0.136809  0.206853   1.92272 208 201 195
-0.0844606   0.205464    1.91777 77 71 73
-0.062384  0.208774   1.91815 137 136 134
0.00469981   0.215987      1.926 166 161 165
-0.222218 0.0361387   1.87144 122 146 180
-0.13013  0.11722  1.86787 182 172 162
-0.123788  0.120315   1.87338 164 163 159
-0.0936046   0.126155    1.87256 62 54 51
-0.123969  0.151646   1.88403 125 118 112
0.0817626   0.17169   1.87691 116 104 118
-0.244234   0.19035   1.90851 124 117 124
-0.152011  0.201734   1.91437 181 178 161
0.209383 -0.18118  1.39925 188 168 161
-0.126317  -0.16825   1.43221 124 112 112
-0.254555 -0.167186    1.4454 193 182 186
-0.360805 -0.164433   1.45174 186 175 179
-0.528542  -0.13306   1.47454 172 168 141
  0.385773 -0.0419663    1.43756 128 129  98
-0.357116 -0.142173   1.47905 194 189 193
0.0068775 -0.138494   1.46255 192 179 171
-0.281104 -0.197161   1.40253 96 91 85
 0.108928 -0.194012   1.39157 172 159 150
-0.281597 -0.192838    1.4107 115 102  94
-0.0630151  -0.187001    1.40443 97 88 73
-0.123301 -0.188591   1.40924 161 138 130
-0.280447 -0.183804   1.41995 103  98  95
   0.38095 -0.0128931    1.47227 109 125  80
-0.402986 -0.107246    1.5265 180 176 165
-0.447784 -0.159302   1.46073 123 115 112
-0.297383 -0.101756    1.5255 183 176 168
-0.317572 -0.148342   1.46874 130 119 115
-0.0281984  -0.136035    1.46833 127 110 120
0.0408649 -0.109564   1.51904 100  90  78
-0.0138204  -0.108551    1.52408 131 100 106
 -0.175793 -0.0953053     1.5356 79 82 65
-0.154083 -0.105424   1.50665 197 188 189
-0.260654  -0.10987   1.51513 139 128 126
-0.411145 -0.108519   1.52413 161 152 147
-0.133647  -0.11017   1.54532 41 40 35
 0.376978 0.0231732   1.51389 53 61 72
-0.170168 -0.104279   1.56505 198 191 185
-0.033186 -0.108763    1.5285 167 148 134
-0.133296 -0.101037   1.53585 48 36 24
-0.119906 -0.107125   1.53679 161 150 144
-0.327409 -0.072877   1.59002 122 117 114
 -0.435076 -0.0795897    1.56235 84 65 67
 -0.283311 -0.0900039    1.56606 135 138 131
-0.133406 -0.105362   1.56419 177 174 165
-0.167642 -0.105991   1.56699 61 50 48
-0.160594 -0.105242   1.56906 95 87 84
-0.130489 -0.105294   1.56783 55 43 43
 -0.383983 -0.0630484    1.58269 128 113 118
-0.129261 -0.101768   1.57586 49 39 40
  -0.38974 -0.0563509    1.59253 193 188 182
 -0.365816 -0.0499754     1.6223 96 93 78
 0.174771 -0.145347   1.61421 38 46 57
0.260596 -0.13827  1.61469 54 61 90
 0.365918 0.0119716   1.64975 172 166 154
  0.290101 -0.0924207    1.67754 116 130 159
 0.368039 0.0158272   1.65053 109 104 110
 -0.187298 -0.0805333     1.7215 49 70 99
-0.0169252  -0.072674    1.72526 121 127 159
    0.2423 -0.0725175      1.706 109 116 142
   0.19231 -0.0699844    1.71387 110 141 170
0.404518 0.143281  1.67165 96 99 80
 0.0551869 -0.0366762    1.76692  57  70 125
-0.413388 0.0865648   1.80605 64 59 40
   0.369248 -0.00800568     1.77481 75 81 79
 -0.0912351 -0.00299483     1.81793 154 173 205
  0.331793 0.00380411    1.79067  88 103 132
 -0.18104 0.0128672   1.84124  80 100 133
-0.317282 0.0815588   1.83596 107  94  85
 0.373559 0.0119193    1.7993 130 127 118
-0.326333 0.0917262   1.84254 124 114 115
-0.273455 0.0894091   1.85252 78 74 73
-0.264037 0.0747209   1.86019 147 145 133
-0.0352869  0.0391796    1.86914 149 156 182
-0.237729  0.112627   1.87312 109 102  92
-0.309442  0.161813   1.87221 89 77 65
-0.0997398   0.115954    1.87276 66 63 80
-0.0691889   0.131198    1.88157 99 85 85
-0.256182  0.177092   1.89064 89 72 80
-0.112375  0.197279   1.89836 184 179 176
-0.0287218   0.195762     1.9001 170 171 157
0.00894796   0.203301    1.91268 146 130 131
0.0488606  0.204046    1.9134 160 155 152
0.102711 0.205728  1.90964 71 61 69
0.160596 0.208554  1.90922 171 168 163
0.103718 0.212418  1.91925  95  96 101
  0.37619 0.0212477   1.51063 135 136 141
-0.171589  -0.19955    1.3983 155 147 136
-0.411799 -0.193772   1.41281 123 110 104
-0.182593  -0.10667   1.57926 121 104 110
0.126891 -0.11308  1.56047 136 117 123
 -0.283106 -0.0999469    1.58546 79 66 57
-0.000429849    -0.110582      1.57185 154 139 142
0.0373957 -0.167021    1.4345 189 182 172
  0.385616 -0.0490186    1.42496 72 75 58
 0.353231 -0.123063   1.42636 175 173 158
-0.355745 -0.147215   1.47143 189 178 184
-0.314482 -0.145485   1.47522 122 119 114
 -0.269681 -0.0918023    1.61065 111  96  91
 -0.306601 -0.0779796    1.62621 165 162 153
 0.272369 -0.145487    1.6041  71  97 122
-0.173592 -0.104774    1.5038 186 185 180
0.0637586 -0.113759   1.49199 200 176 164
-0.344249 -0.057315   1.64764 158 147 145
-0.302774  -0.10273   1.52678 200 195 191
 -0.24869 -0.100376   1.52469 188 180 178
 0.394524 0.0179304   1.50699 43 60 54
 -0.292214 -0.0870783    1.55962 101  88  80
  -0.39367 -0.0689741    1.57432 123 118 122
 0.209461 -0.117925   1.54485 99 90 95
-0.0958374 -0.0754153    1.72149 172 190 212
 -0.195618 -0.0770553    1.73097 128 155 184
  0.267127 -0.0746345    1.69658 133 157 183
0.0307725 -0.112053   1.56474 184 159 152
-0.00408795   -0.111138     1.56771 198 174 170
-0.0333903  -0.110601    1.57053 186 166 175
-0.223908 -0.102495   1.58996 181 167 158
-0.395686 0.0208703   1.75376 134 125 126
 -0.23101 -0.101649   1.59192 172 169 164
 -0.274414 -0.0898756    1.60811 180 168 168
 -0.153539 -0.0358271    1.77664 133 159 192
-0.354019 0.0140739   1.78987 90 85 63
 -0.313694 -0.0769206    1.62621 106 101  82
-0.0907041 -0.0316436    1.78477 169 189 213
 -0.409367 -0.0188654    1.65214 78 72 76
 -0.352236 -0.0523652    1.65744 162 147 142
  -0.4492 0.0037457   1.67101 132 127 131
-0.35377 0.059773  1.80655 167 161 163
-0.243468 -0.116249   1.68207  90  93 112
  -0.292725 -0.00259325     1.82954 100 117 145
   0.201166 -0.00350992     1.79304  90 103 137
-0.291209 0.0058132   1.83652 49 61 85
 -0.224728 -0.0860251    1.71467 126 152 177
  0.214841 -0.0887224    1.68995 106 120 149
 -0.18493 0.0142535    1.8368 118 144 181
 -0.218227 0.00906016    1.84304  69 100 128
-0.0926799  0.0113631    1.83141 125 153 190
-0.309061 0.0771882   1.83433 174 169 163
 0.195404 -0.068341   1.71641  92 111 153
 -0.270803 -0.0602391    1.75391 130 147 173
-0.398729 0.0174081   1.75053 97 88 79
-0.356149  0.138981   1.84583 82 81 76
-0.284346  0.105857   1.86159 107 101 101
-0.363996 0.0298784   1.77622 49 42 32
 0.259846 0.0296483   1.83788  92 111 153
  -0.14413 -0.0365352    1.77614 118 151 184
-0.373839 0.0348244    1.7779 75 73 60
  0.254486 -0.0358798    1.74666 167 178 184
0.401894 0.159248  1.68882 37 43 57
-0.00301551    0.105442     1.86414 77 66 74
0.399754 0.171485  1.70397 116 119 128
  -0.287656 -0.00406936     1.83167  58  74 108
  -0.242351 7.59485e-05      1.8316 118 134 167
-0.0669598  0.0347718    1.86076  68  68 102
0.0748856  0.175967   1.87988 176 173 168
-0.102375  0.192028   1.89374  93  84 101
-0.229163  0.193939   1.90898 144 129 134
0.00617037   0.112685    1.86272 126 121 128
